ncols         400
nrows         78
xllcorner     4966250
yllcorner     2727250
cellsize      250
NODATA_value  -9999
73	73	73	73	71	71	71	71	62	62	62	62	61	61	61	61	56	56	56	56	63	63	63	63	69	69	69	69	69	69	69	69	63	63	63	63	64	64	64	64	56	56	56	56	48	48	48	48	45	45	45	45	43	43	43	43	45	45	45	45	46	46	46	46	48	48	48	48	57	57	57	57	51	51	51	51	45	45	45	45	37	37	37	37	38	38	38	38	30	30	30	30	32	32	32	32	31	31	31	31	27	27	27	27	31	31	31	31	31	31	31	31	31	31	31	31	31	31	31	31	31	31	31	31	31	31	31	31	31	31	31	31	33	33	33	33	33	33	33	33	33	33	33	33	33	33	33	33	32	32	32	32	32	32	32	32	32	32	32	32	32	32	32	32	32	32	32	32	36	36	36	36	32	32	32	32	32	32	32	32	36	36	36	36	36	36	36	36	34	34	34	34	38	38	38	38	38	38	38	38	39	39	39	39	37	37	37	37	37	37	37	37	40	40	40	40	43	43	43	43	46	46	46	46	53	53	53	53	55	55	55	55	68	68	68	68	74	74	74	74	73	73	73	73	73	73	73	73	71	71	71	71	63	63	63	63	63	63	63	63	64	64	64	64	52	52	52	52	47	47	47	47	56	56	56	56	57	57	57	57	52	52	52	52	48	48	48	48	48	48	48	48	45	45	45	45	43	43	43	43	37	37	37	37	37	37	37	37	40	40	40	40	37	37	37	37	37	37	37	37	38	38	38	38	40	40	40	40	43	43	43	43	37	37	37	37	34	34	34	34	32	32	32	32	34	34	34	34	34	34	34	34	32	32	32	32	38	38	38	38	36	36	36	36	32	32	32	32	34	34	34	34	32	32	32	32	32	32	32	32	32	32	32	32	32	32	32	32	33	33	33	33	30	30	30	30	31	31	31	31
73	73	73	73	71	71	71	71	62	62	62	62	61	61	61	61	56	56	56	56	63	63	63	63	69	69	69	69	69	69	69	69	63	63	63	63	64	64	64	64	56	56	56	56	48	48	48	48	45	45	45	45	43	43	43	43	45	45	45	45	46	46	46	46	48	48	48	48	57	57	57	57	51	51	51	51	45	45	45	45	37	37	37	37	38	38	38	38	30	30	30	30	32	32	32	32	31	31	31	31	27	27	27	27	31	31	31	31	31	31	31	31	31	31	31	31	31	31	31	31	31	31	31	31	31	31	31	31	31	31	31	31	33	33	33	33	33	33	33	33	33	33	33	33	33	33	33	33	32	32	32	32	32	32	32	32	32	32	32	32	32	32	32	32	32	32	32	32	36	36	36	36	32	32	32	32	32	32	32	32	36	36	36	36	36	36	36	36	34	34	34	34	38	38	38	38	38	38	38	38	39	39	39	39	37	37	37	37	37	37	37	37	40	40	40	40	43	43	43	43	46	46	46	46	53	53	53	53	55	55	55	55	68	68	68	68	74	74	74	74	73	73	73	73	73	73	73	73	71	71	71	71	63	63	63	63	63	63	63	63	64	64	64	64	52	52	52	52	47	47	47	47	56	56	56	56	57	57	57	57	52	52	52	52	48	48	48	48	48	48	48	48	45	45	45	45	43	43	43	43	37	37	37	37	37	37	37	37	40	40	40	40	37	37	37	37	37	37	37	37	38	38	38	38	40	40	40	40	43	43	43	43	37	37	37	37	34	34	34	34	32	32	32	32	34	34	34	34	34	34	34	34	32	32	32	32	38	38	38	38	36	36	36	36	32	32	32	32	34	34	34	34	32	32	32	32	32	32	32	32	32	32	32	32	32	32	32	32	33	33	33	33	30	30	30	30	31	31	31	31
56	56	56	56	74	74	74	74	67	67	67	67	62	62	62	62	56	56	56	56	51	51	51	51	63	63	63	63	73	73	73	73	64	64	64	64	58	58	58	58	52	52	52	52	46	46	46	46	43	43	43	43	43	43	43	43	42	42	42	42	43	43	43	43	45	45	45	45	52	52	52	52	52	52	52	52	40	40	40	40	38	38	38	38	33	33	33	33	33	33	33	33	39	39	39	39	38	38	38	38	30	30	30	30	30	30	30	30	30	30	30	30	30	30	30	30	30	30	30	30	30	30	30	30	30	30	30	30	30	30	30	30	33	33	33	33	33	33	33	33	30	30	30	30	30	30	30	30	30	30	30	30	30	30	30	30	33	33	33	33	33	33	33	33	33	33	33	33	33	33	33	33	32	32	32	32	32	32	32	32	32	32	32	32	32	32	32	32	36	36	36	36	34	34	34	34	38	38	38	38	38	38	38	38	39	39	39	39	37	37	37	37	37	37	37	37	40	40	40	40	43	43	43	43	45	45	45	45	51	51	51	51	61	61	61	61	69	69	69	69	69	69	69	69	71	71	71	71	68	68	68	68	66	66	66	66	63	63	63	63	60	60	60	60	58	58	58	58	57	57	57	57	58	58	58	58	57	57	57	57	45	45	45	45	44	44	44	44	45	45	45	45	46	46	46	46	40	40	40	40	38	38	38	38	32	32	32	32	40	40	40	40	39	39	39	39	37	37	37	37	37	37	37	37	38	38	38	38	38	38	38	38	37	37	37	37	34	34	34	34	32	32	32	32	32	32	32	32	34	34	34	34	32	32	32	32	38	38	38	38	32	32	32	32	34	34	34	34	38	38	38	38	30	30	30	30	32	32	32	32	33	33	33	33	30	30	30	30	33	33	33	33	34	34	34	34	30	30	30	30
56	56	56	56	74	74	74	74	67	67	67	67	62	62	62	62	56	56	56	56	51	51	51	51	63	63	63	63	73	73	73	73	64	64	64	64	58	58	58	58	52	52	52	52	46	46	46	46	43	43	43	43	43	43	43	43	42	42	42	42	43	43	43	43	45	45	45	45	52	52	52	52	52	52	52	52	40	40	40	40	38	38	38	38	33	33	33	33	33	33	33	33	39	39	39	39	38	38	38	38	30	30	30	30	30	30	30	30	30	30	30	30	30	30	30	30	30	30	30	30	30	30	30	30	30	30	30	30	30	30	30	30	33	33	33	33	33	33	33	33	30	30	30	30	30	30	30	30	30	30	30	30	30	30	30	30	33	33	33	33	33	33	33	33	33	33	33	33	33	33	33	33	32	32	32	32	32	32	32	32	32	32	32	32	32	32	32	32	36	36	36	36	34	34	34	34	38	38	38	38	38	38	38	38	39	39	39	39	37	37	37	37	37	37	37	37	40	40	40	40	43	43	43	43	45	45	45	45	51	51	51	51	61	61	61	61	69	69	69	69	69	69	69	69	71	71	71	71	68	68	68	68	66	66	66	66	63	63	63	63	60	60	60	60	58	58	58	58	57	57	57	57	58	58	58	58	57	57	57	57	45	45	45	45	44	44	44	44	45	45	45	45	46	46	46	46	40	40	40	40	38	38	38	38	32	32	32	32	40	40	40	40	39	39	39	39	37	37	37	37	37	37	37	37	38	38	38	38	38	38	38	38	37	37	37	37	34	34	34	34	32	32	32	32	32	32	32	32	34	34	34	34	32	32	32	32	38	38	38	38	32	32	32	32	34	34	34	34	38	38	38	38	30	30	30	30	32	32	32	32	33	33	33	33	30	30	30	30	33	33	33	33	34	34	34	34	30	30	30	30
56	56	56	56	74	74	74	74	67	67	67	67	62	62	62	62	56	56	56	56	51	51	51	51	63	63	63	63	73	73	73	73	64	64	64	64	58	58	58	58	52	52	52	52	46	46	46	46	43	43	43	43	43	43	43	43	42	42	42	42	43	43	43	43	45	45	45	45	52	52	52	52	52	52	52	52	40	40	40	40	38	38	38	38	33	33	33	33	33	33	33	33	39	39	39	39	38	38	38	38	30	30	30	30	30	30	30	30	30	30	30	30	30	30	30	30	30	30	30	30	30	30	30	30	30	30	30	30	30	30	30	30	33	33	33	33	33	33	33	33	30	30	30	30	30	30	30	30	30	30	30	30	30	30	30	30	33	33	33	33	33	33	33	33	33	33	33	33	33	33	33	33	32	32	32	32	32	32	32	32	32	32	32	32	32	32	32	32	36	36	36	36	34	34	34	34	38	38	38	38	38	38	38	38	39	39	39	39	37	37	37	37	37	37	37	37	40	40	40	40	43	43	43	43	45	45	45	45	51	51	51	51	61	61	61	61	69	69	69	69	69	69	69	69	71	71	71	71	68	68	68	68	66	66	66	66	63	63	63	63	60	60	60	60	58	58	58	58	57	57	57	57	58	58	58	58	57	57	57	57	45	45	45	45	44	44	44	44	45	45	45	45	46	46	46	46	40	40	40	40	38	38	38	38	32	32	32	32	40	40	40	40	39	39	39	39	37	37	37	37	37	37	37	37	38	38	38	38	38	38	38	38	37	37	37	37	34	34	34	34	32	32	32	32	32	32	32	32	34	34	34	34	32	32	32	32	38	38	38	38	32	32	32	32	34	34	34	34	38	38	38	38	30	30	30	30	32	32	32	32	33	33	33	33	30	30	30	30	33	33	33	33	34	34	34	34	30	30	30	30
56	56	56	56	74	74	74	74	67	67	67	67	62	62	62	62	56	56	56	56	51	51	51	51	63	63	63	63	73	73	73	73	64	64	64	64	58	58	58	58	52	52	52	52	46	46	46	46	43	43	43	43	43	43	43	43	42	42	42	42	43	43	43	43	45	45	45	45	52	52	52	52	52	52	52	52	40	40	40	40	38	38	38	38	33	33	33	33	33	33	33	33	39	39	39	39	38	38	38	38	30	30	30	30	30	30	30	30	30	30	30	30	30	30	30	30	30	30	30	30	30	30	30	30	30	30	30	30	30	30	30	30	33	33	33	33	33	33	33	33	30	30	30	30	30	30	30	30	30	30	30	30	30	30	30	30	33	33	33	33	33	33	33	33	33	33	33	33	33	33	33	33	32	32	32	32	32	32	32	32	32	32	32	32	32	32	32	32	36	36	36	36	34	34	34	34	38	38	38	38	38	38	38	38	39	39	39	39	37	37	37	37	37	37	37	37	40	40	40	40	43	43	43	43	45	45	45	45	51	51	51	51	61	61	61	61	69	69	69	69	69	69	69	69	71	71	71	71	68	68	68	68	66	66	66	66	63	63	63	63	60	60	60	60	58	58	58	58	57	57	57	57	58	58	58	58	57	57	57	57	45	45	45	45	44	44	44	44	45	45	45	45	46	46	46	46	40	40	40	40	38	38	38	38	32	32	32	32	40	40	40	40	39	39	39	39	37	37	37	37	37	37	37	37	38	38	38	38	38	38	38	38	37	37	37	37	34	34	34	34	32	32	32	32	32	32	32	32	34	34	34	34	32	32	32	32	38	38	38	38	32	32	32	32	34	34	34	34	38	38	38	38	30	30	30	30	32	32	32	32	33	33	33	33	30	30	30	30	33	33	33	33	34	34	34	34	30	30	30	30
43	43	43	43	63	63	63	63	73	73	73	73	68	68	68	68	55	55	55	55	52	52	52	52	62	62	62	62	67	67	67	67	68	68	68	68	59	59	59	59	49	49	49	49	48	48	48	48	43	43	43	43	43	43	43	43	42	42	42	42	41	41	41	41	43	43	43	43	49	49	49	49	60	60	60	60	42	42	42	42	38	38	38	38	27	27	27	27	37	37	37	37	40	40	40	40	38	38	38	38	30	30	30	30	30	30	30	30	30	30	30	30	30	30	30	30	30	30	30	30	30	30	30	30	30	30	30	30	33	33	33	33	32	32	32	32	32	32	32	32	32	32	32	32	30	30	30	30	30	30	30	30	30	30	30	30	30	30	30	30	30	30	30	30	30	30	30	30	30	30	30	30	33	33	33	33	32	32	32	32	32	32	32	32	32	32	32	32	32	32	32	32	36	36	36	36	34	34	34	34	38	38	38	38	38	38	38	38	39	39	39	39	40	40	40	40	40	40	40	40	41	41	41	41	43	43	43	43	47	47	47	47	55	55	55	55	61	61	61	61	67	67	67	67	69	69	69	69	71	71	71	71	69	69	69	69	64	64	64	64	58	58	58	58	64	64	64	64	58	58	58	58	58	58	58	58	57	57	57	57	48	48	48	48	51	51	51	51	48	48	48	48	44	44	44	44	37	37	37	37	40	40	40	40	37	37	37	37	39	39	39	39	41	41	41	41	40	40	40	40	40	40	40	40	37	37	37	37	39	39	39	39	34	34	34	34	38	38	38	38	38	38	38	38	36	36	36	36	32	32	32	32	32	32	32	32	34	34	34	34	34	34	34	34	34	34	34	34	32	32	32	32	34	34	34	34	32	32	32	32	33	33	33	33	33	33	33	33	30	30	30	30	30	30	30	30	31	31	31	31
43	43	43	43	63	63	63	63	73	73	73	73	68	68	68	68	55	55	55	55	52	52	52	52	62	62	62	62	67	67	67	67	68	68	68	68	59	59	59	59	49	49	49	49	48	48	48	48	43	43	43	43	43	43	43	43	42	42	42	42	41	41	41	41	43	43	43	43	49	49	49	49	60	60	60	60	42	42	42	42	38	38	38	38	27	27	27	27	37	37	37	37	40	40	40	40	38	38	38	38	30	30	30	30	30	30	30	30	30	30	30	30	30	30	30	30	30	30	30	30	30	30	30	30	30	30	30	30	33	33	33	33	32	32	32	32	32	32	32	32	32	32	32	32	30	30	30	30	30	30	30	30	30	30	30	30	30	30	30	30	30	30	30	30	30	30	30	30	30	30	30	30	33	33	33	33	32	32	32	32	32	32	32	32	32	32	32	32	32	32	32	32	36	36	36	36	34	34	34	34	38	38	38	38	38	38	38	38	39	39	39	39	40	40	40	40	40	40	40	40	41	41	41	41	43	43	43	43	47	47	47	47	55	55	55	55	61	61	61	61	67	67	67	67	69	69	69	69	71	71	71	71	69	69	69	69	64	64	64	64	58	58	58	58	64	64	64	64	58	58	58	58	58	58	58	58	57	57	57	57	48	48	48	48	51	51	51	51	48	48	48	48	44	44	44	44	37	37	37	37	40	40	40	40	37	37	37	37	39	39	39	39	41	41	41	41	40	40	40	40	40	40	40	40	37	37	37	37	39	39	39	39	34	34	34	34	38	38	38	38	38	38	38	38	36	36	36	36	32	32	32	32	32	32	32	32	34	34	34	34	34	34	34	34	34	34	34	34	32	32	32	32	34	34	34	34	32	32	32	32	33	33	33	33	33	33	33	33	30	30	30	30	30	30	30	30	31	31	31	31
43	43	43	43	63	63	63	63	73	73	73	73	68	68	68	68	55	55	55	55	52	52	52	52	62	62	62	62	67	67	67	67	68	68	68	68	59	59	59	59	49	49	49	49	48	48	48	48	43	43	43	43	43	43	43	43	42	42	42	42	41	41	41	41	43	43	43	43	49	49	49	49	60	60	60	60	42	42	42	42	38	38	38	38	27	27	27	27	37	37	37	37	40	40	40	40	38	38	38	38	30	30	30	30	30	30	30	30	30	30	30	30	30	30	30	30	30	30	30	30	30	30	30	30	30	30	30	30	33	33	33	33	32	32	32	32	32	32	32	32	32	32	32	32	30	30	30	30	30	30	30	30	30	30	30	30	30	30	30	30	30	30	30	30	30	30	30	30	30	30	30	30	33	33	33	33	32	32	32	32	32	32	32	32	32	32	32	32	32	32	32	32	36	36	36	36	34	34	34	34	38	38	38	38	38	38	38	38	39	39	39	39	40	40	40	40	40	40	40	40	41	41	41	41	43	43	43	43	47	47	47	47	55	55	55	55	61	61	61	61	67	67	67	67	69	69	69	69	71	71	71	71	69	69	69	69	64	64	64	64	58	58	58	58	64	64	64	64	58	58	58	58	58	58	58	58	57	57	57	57	48	48	48	48	51	51	51	51	48	48	48	48	44	44	44	44	37	37	37	37	40	40	40	40	37	37	37	37	39	39	39	39	41	41	41	41	40	40	40	40	40	40	40	40	37	37	37	37	39	39	39	39	34	34	34	34	38	38	38	38	38	38	38	38	36	36	36	36	32	32	32	32	32	32	32	32	34	34	34	34	34	34	34	34	34	34	34	34	32	32	32	32	34	34	34	34	32	32	32	32	33	33	33	33	33	33	33	33	30	30	30	30	30	30	30	30	31	31	31	31
43	43	43	43	63	63	63	63	73	73	73	73	68	68	68	68	55	55	55	55	52	52	52	52	62	62	62	62	67	67	67	67	68	68	68	68	59	59	59	59	49	49	49	49	48	48	48	48	43	43	43	43	43	43	43	43	42	42	42	42	41	41	41	41	43	43	43	43	49	49	49	49	60	60	60	60	42	42	42	42	38	38	38	38	27	27	27	27	37	37	37	37	40	40	40	40	38	38	38	38	30	30	30	30	30	30	30	30	30	30	30	30	30	30	30	30	30	30	30	30	30	30	30	30	30	30	30	30	33	33	33	33	32	32	32	32	32	32	32	32	32	32	32	32	30	30	30	30	30	30	30	30	30	30	30	30	30	30	30	30	30	30	30	30	30	30	30	30	30	30	30	30	33	33	33	33	32	32	32	32	32	32	32	32	32	32	32	32	32	32	32	32	36	36	36	36	34	34	34	34	38	38	38	38	38	38	38	38	39	39	39	39	40	40	40	40	40	40	40	40	41	41	41	41	43	43	43	43	47	47	47	47	55	55	55	55	61	61	61	61	67	67	67	67	69	69	69	69	71	71	71	71	69	69	69	69	64	64	64	64	58	58	58	58	64	64	64	64	58	58	58	58	58	58	58	58	57	57	57	57	48	48	48	48	51	51	51	51	48	48	48	48	44	44	44	44	37	37	37	37	40	40	40	40	37	37	37	37	39	39	39	39	41	41	41	41	40	40	40	40	40	40	40	40	37	37	37	37	39	39	39	39	34	34	34	34	38	38	38	38	38	38	38	38	36	36	36	36	32	32	32	32	32	32	32	32	34	34	34	34	34	34	34	34	34	34	34	34	32	32	32	32	34	34	34	34	32	32	32	32	33	33	33	33	33	33	33	33	30	30	30	30	30	30	30	30	31	31	31	31
47	47	47	47	48	48	48	48	69	69	69	69	67	67	67	67	56	56	56	56	51	51	51	51	60	60	60	60	63	63	63	63	63	63	63	63	63	63	63	63	55	55	55	55	48	48	48	48	46	46	46	46	45	45	45	45	43	43	43	43	40	40	40	40	43	43	43	43	48	48	48	48	60	60	60	60	58	58	58	58	31	31	31	31	36	36	36	36	37	37	37	37	37	37	37	37	38	38	38	38	30	30	30	30	30	30	30	30	33	33	33	33	33	33	33	33	30	30	30	30	31	31	31	31	30	30	30	30	33	33	33	33	32	32	32	32	32	32	32	32	32	32	32	32	32	32	32	32	32	32	32	32	32	32	32	32	32	32	32	32	33	33	33	33	33	33	33	33	33	33	33	33	33	33	33	33	33	33	33	33	32	32	32	32	32	32	32	32	32	32	32	32	32	32	32	32	36	36	36	36	34	34	34	34	38	38	38	38	39	39	39	39	40	40	40	40	40	40	40	40	42	42	42	42	43	43	43	43	43	43	43	43	47	47	47	47	53	53	53	53	60	60	60	60	61	61	61	61	67	67	67	67	67	67	67	67	65	65	65	65	62	62	62	62	60	60	60	60	57	57	57	57	59	59	59	59	61	61	61	61	61	61	61	61	52	52	52	52	49	49	49	49	48	48	48	48	49	49	49	49	41	41	41	41	41	41	41	41	40	40	40	40	40	40	40	40	37	37	37	37	38	38	38	38	37	37	37	37	39	39	39	39	38	38	38	38	38	38	38	38	38	38	38	38	34	34	34	34	34	34	34	34	32	32	32	32	36	36	36	36	38	38	38	38	33	33	33	33	30	30	30	30	36	36	36	36	32	32	32	32	30	30	30	30	30	30	30	30	36	36	36	36	33	33	33	33	30	30	30	30
47	47	47	47	48	48	48	48	69	69	69	69	67	67	67	67	56	56	56	56	51	51	51	51	60	60	60	60	63	63	63	63	63	63	63	63	63	63	63	63	55	55	55	55	48	48	48	48	46	46	46	46	45	45	45	45	43	43	43	43	40	40	40	40	43	43	43	43	48	48	48	48	60	60	60	60	58	58	58	58	31	31	31	31	36	36	36	36	37	37	37	37	37	37	37	37	38	38	38	38	30	30	30	30	30	30	30	30	33	33	33	33	33	33	33	33	30	30	30	30	31	31	31	31	30	30	30	30	33	33	33	33	32	32	32	32	32	32	32	32	32	32	32	32	32	32	32	32	32	32	32	32	32	32	32	32	32	32	32	32	33	33	33	33	33	33	33	33	33	33	33	33	33	33	33	33	33	33	33	33	32	32	32	32	32	32	32	32	32	32	32	32	32	32	32	32	36	36	36	36	34	34	34	34	38	38	38	38	39	39	39	39	40	40	40	40	40	40	40	40	42	42	42	42	43	43	43	43	43	43	43	43	47	47	47	47	53	53	53	53	60	60	60	60	61	61	61	61	67	67	67	67	67	67	67	67	65	65	65	65	62	62	62	62	60	60	60	60	57	57	57	57	59	59	59	59	61	61	61	61	61	61	61	61	52	52	52	52	49	49	49	49	48	48	48	48	49	49	49	49	41	41	41	41	41	41	41	41	40	40	40	40	40	40	40	40	37	37	37	37	38	38	38	38	37	37	37	37	39	39	39	39	38	38	38	38	38	38	38	38	38	38	38	38	34	34	34	34	34	34	34	34	32	32	32	32	36	36	36	36	38	38	38	38	33	33	33	33	30	30	30	30	36	36	36	36	32	32	32	32	30	30	30	30	30	30	30	30	36	36	36	36	33	33	33	33	30	30	30	30
47	47	47	47	48	48	48	48	69	69	69	69	67	67	67	67	56	56	56	56	51	51	51	51	60	60	60	60	63	63	63	63	63	63	63	63	63	63	63	63	55	55	55	55	48	48	48	48	46	46	46	46	45	45	45	45	43	43	43	43	40	40	40	40	43	43	43	43	48	48	48	48	60	60	60	60	58	58	58	58	31	31	31	31	36	36	36	36	37	37	37	37	37	37	37	37	38	38	38	38	30	30	30	30	30	30	30	30	33	33	33	33	33	33	33	33	30	30	30	30	31	31	31	31	30	30	30	30	33	33	33	33	32	32	32	32	32	32	32	32	32	32	32	32	32	32	32	32	32	32	32	32	32	32	32	32	32	32	32	32	33	33	33	33	33	33	33	33	33	33	33	33	33	33	33	33	33	33	33	33	32	32	32	32	32	32	32	32	32	32	32	32	32	32	32	32	36	36	36	36	34	34	34	34	38	38	38	38	39	39	39	39	40	40	40	40	40	40	40	40	42	42	42	42	43	43	43	43	43	43	43	43	47	47	47	47	53	53	53	53	60	60	60	60	61	61	61	61	67	67	67	67	67	67	67	67	65	65	65	65	62	62	62	62	60	60	60	60	57	57	57	57	59	59	59	59	61	61	61	61	61	61	61	61	52	52	52	52	49	49	49	49	48	48	48	48	49	49	49	49	41	41	41	41	41	41	41	41	40	40	40	40	40	40	40	40	37	37	37	37	38	38	38	38	37	37	37	37	39	39	39	39	38	38	38	38	38	38	38	38	38	38	38	38	34	34	34	34	34	34	34	34	32	32	32	32	36	36	36	36	38	38	38	38	33	33	33	33	30	30	30	30	36	36	36	36	32	32	32	32	30	30	30	30	30	30	30	30	36	36	36	36	33	33	33	33	30	30	30	30
47	47	47	47	48	48	48	48	69	69	69	69	67	67	67	67	56	56	56	56	51	51	51	51	60	60	60	60	63	63	63	63	63	63	63	63	63	63	63	63	55	55	55	55	48	48	48	48	46	46	46	46	45	45	45	45	43	43	43	43	40	40	40	40	43	43	43	43	48	48	48	48	60	60	60	60	58	58	58	58	31	31	31	31	36	36	36	36	37	37	37	37	37	37	37	37	38	38	38	38	30	30	30	30	30	30	30	30	33	33	33	33	33	33	33	33	30	30	30	30	31	31	31	31	30	30	30	30	33	33	33	33	32	32	32	32	32	32	32	32	32	32	32	32	32	32	32	32	32	32	32	32	32	32	32	32	32	32	32	32	33	33	33	33	33	33	33	33	33	33	33	33	33	33	33	33	33	33	33	33	32	32	32	32	32	32	32	32	32	32	32	32	32	32	32	32	36	36	36	36	34	34	34	34	38	38	38	38	39	39	39	39	40	40	40	40	40	40	40	40	42	42	42	42	43	43	43	43	43	43	43	43	47	47	47	47	53	53	53	53	60	60	60	60	61	61	61	61	67	67	67	67	67	67	67	67	65	65	65	65	62	62	62	62	60	60	60	60	57	57	57	57	59	59	59	59	61	61	61	61	61	61	61	61	52	52	52	52	49	49	49	49	48	48	48	48	49	49	49	49	41	41	41	41	41	41	41	41	40	40	40	40	40	40	40	40	37	37	37	37	38	38	38	38	37	37	37	37	39	39	39	39	38	38	38	38	38	38	38	38	38	38	38	38	34	34	34	34	34	34	34	34	32	32	32	32	36	36	36	36	38	38	38	38	33	33	33	33	30	30	30	30	36	36	36	36	32	32	32	32	30	30	30	30	30	30	30	30	36	36	36	36	33	33	33	33	30	30	30	30
58	58	58	58	45	45	45	45	49	49	49	49	67	67	67	67	60	60	60	60	45	45	45	45	51	51	51	51	55	55	55	55	56	56	56	56	59	59	59	59	57	57	57	57	48	48	48	48	47	47	47	47	47	47	47	47	45	45	45	45	42	42	42	42	41	41	41	41	45	45	45	45	54	54	54	54	62	62	62	62	30	30	30	30	34	34	34	34	37	37	37	37	37	37	37	37	38	38	38	38	33	33	33	33	30	30	30	30	33	33	33	33	33	33	33	33	30	30	30	30	30	30	30	30	33	33	33	33	33	33	33	33	36	36	36	36	32	32	32	32	32	32	32	32	32	32	32	32	32	32	32	32	32	32	32	32	32	32	32	32	32	32	32	32	32	32	32	32	32	32	32	32	32	32	32	32	32	32	32	32	32	32	32	32	32	32	32	32	32	32	32	32	36	36	36	36	36	36	36	36	36	36	36	36	34	34	34	34	38	38	38	38	39	39	39	39	40	40	40	40	40	40	40	40	41	41	41	41	42	42	42	42	43	43	43	43	45	45	45	45	51	51	51	51	64	64	64	64	67	67	67	67	69	69	69	69	63	63	63	63	62	62	62	62	62	62	62	62	63	63	63	63	58	58	58	58	62	62	62	62	63	63	63	63	55	55	55	55	48	48	48	48	48	48	48	48	48	48	48	48	41	41	41	41	45	45	45	45	41	41	41	41	39	39	39	39	39	39	39	39	39	39	39	39	38	38	38	38	38	38	38	38	38	38	38	38	38	38	38	38	39	39	39	39	38	38	38	38	34	34	34	34	36	36	36	36	38	38	38	38	32	32	32	32	32	32	32	32	30	30	30	30	32	32	32	32	34	34	34	34	30	30	30	30	30	30	30	30	32	32	32	32	32	32	32	32	31	31	31	31
58	58	58	58	45	45	45	45	49	49	49	49	67	67	67	67	60	60	60	60	45	45	45	45	51	51	51	51	55	55	55	55	56	56	56	56	59	59	59	59	57	57	57	57	48	48	48	48	47	47	47	47	47	47	47	47	45	45	45	45	42	42	42	42	41	41	41	41	45	45	45	45	54	54	54	54	62	62	62	62	30	30	30	30	34	34	34	34	37	37	37	37	37	37	37	37	38	38	38	38	33	33	33	33	30	30	30	30	33	33	33	33	33	33	33	33	30	30	30	30	30	30	30	30	33	33	33	33	33	33	33	33	36	36	36	36	32	32	32	32	32	32	32	32	32	32	32	32	32	32	32	32	32	32	32	32	32	32	32	32	32	32	32	32	32	32	32	32	32	32	32	32	32	32	32	32	32	32	32	32	32	32	32	32	32	32	32	32	32	32	32	32	36	36	36	36	36	36	36	36	36	36	36	36	34	34	34	34	38	38	38	38	39	39	39	39	40	40	40	40	40	40	40	40	41	41	41	41	42	42	42	42	43	43	43	43	45	45	45	45	51	51	51	51	64	64	64	64	67	67	67	67	69	69	69	69	63	63	63	63	62	62	62	62	62	62	62	62	63	63	63	63	58	58	58	58	62	62	62	62	63	63	63	63	55	55	55	55	48	48	48	48	48	48	48	48	48	48	48	48	41	41	41	41	45	45	45	45	41	41	41	41	39	39	39	39	39	39	39	39	39	39	39	39	38	38	38	38	38	38	38	38	38	38	38	38	38	38	38	38	39	39	39	39	38	38	38	38	34	34	34	34	36	36	36	36	38	38	38	38	32	32	32	32	32	32	32	32	30	30	30	30	32	32	32	32	34	34	34	34	30	30	30	30	30	30	30	30	32	32	32	32	32	32	32	32	31	31	31	31
58	58	58	58	45	45	45	45	49	49	49	49	67	67	67	67	60	60	60	60	45	45	45	45	51	51	51	51	55	55	55	55	56	56	56	56	59	59	59	59	57	57	57	57	48	48	48	48	47	47	47	47	47	47	47	47	45	45	45	45	42	42	42	42	41	41	41	41	45	45	45	45	54	54	54	54	62	62	62	62	30	30	30	30	34	34	34	34	37	37	37	37	37	37	37	37	38	38	38	38	33	33	33	33	30	30	30	30	33	33	33	33	33	33	33	33	30	30	30	30	30	30	30	30	33	33	33	33	33	33	33	33	36	36	36	36	32	32	32	32	32	32	32	32	32	32	32	32	32	32	32	32	32	32	32	32	32	32	32	32	32	32	32	32	32	32	32	32	32	32	32	32	32	32	32	32	32	32	32	32	32	32	32	32	32	32	32	32	32	32	32	32	36	36	36	36	36	36	36	36	36	36	36	36	34	34	34	34	38	38	38	38	39	39	39	39	40	40	40	40	40	40	40	40	41	41	41	41	42	42	42	42	43	43	43	43	45	45	45	45	51	51	51	51	64	64	64	64	67	67	67	67	69	69	69	69	63	63	63	63	62	62	62	62	62	62	62	62	63	63	63	63	58	58	58	58	62	62	62	62	63	63	63	63	55	55	55	55	48	48	48	48	48	48	48	48	48	48	48	48	41	41	41	41	45	45	45	45	41	41	41	41	39	39	39	39	39	39	39	39	39	39	39	39	38	38	38	38	38	38	38	38	38	38	38	38	38	38	38	38	39	39	39	39	38	38	38	38	34	34	34	34	36	36	36	36	38	38	38	38	32	32	32	32	32	32	32	32	30	30	30	30	32	32	32	32	34	34	34	34	30	30	30	30	30	30	30	30	32	32	32	32	32	32	32	32	31	31	31	31
58	58	58	58	45	45	45	45	49	49	49	49	67	67	67	67	60	60	60	60	45	45	45	45	51	51	51	51	55	55	55	55	56	56	56	56	59	59	59	59	57	57	57	57	48	48	48	48	47	47	47	47	47	47	47	47	45	45	45	45	42	42	42	42	41	41	41	41	45	45	45	45	54	54	54	54	62	62	62	62	30	30	30	30	34	34	34	34	37	37	37	37	37	37	37	37	38	38	38	38	33	33	33	33	30	30	30	30	33	33	33	33	33	33	33	33	30	30	30	30	30	30	30	30	33	33	33	33	33	33	33	33	36	36	36	36	32	32	32	32	32	32	32	32	32	32	32	32	32	32	32	32	32	32	32	32	32	32	32	32	32	32	32	32	32	32	32	32	32	32	32	32	32	32	32	32	32	32	32	32	32	32	32	32	32	32	32	32	32	32	32	32	36	36	36	36	36	36	36	36	36	36	36	36	34	34	34	34	38	38	38	38	39	39	39	39	40	40	40	40	40	40	40	40	41	41	41	41	42	42	42	42	43	43	43	43	45	45	45	45	51	51	51	51	64	64	64	64	67	67	67	67	69	69	69	69	63	63	63	63	62	62	62	62	62	62	62	62	63	63	63	63	58	58	58	58	62	62	62	62	63	63	63	63	55	55	55	55	48	48	48	48	48	48	48	48	48	48	48	48	41	41	41	41	45	45	45	45	41	41	41	41	39	39	39	39	39	39	39	39	39	39	39	39	38	38	38	38	38	38	38	38	38	38	38	38	38	38	38	38	39	39	39	39	38	38	38	38	34	34	34	34	36	36	36	36	38	38	38	38	32	32	32	32	32	32	32	32	30	30	30	30	32	32	32	32	34	34	34	34	30	30	30	30	30	30	30	30	32	32	32	32	32	32	32	32	31	31	31	31
60	60	60	60	50	50	50	50	43	43	43	43	60	60	60	60	64	64	64	64	49	49	49	49	48	48	48	48	48	48	48	48	47	47	47	47	52	52	52	52	57	57	57	57	55	55	55	55	48	48	48	48	51	51	51	51	49	49	49	49	48	48	48	48	44	44	44	44	37	37	37	37	45	45	45	45	57	57	57	57	48	48	48	48	31	31	31	31	37	37	37	37	39	39	39	39	38	38	38	38	32	32	32	32	33	33	33	33	32	32	32	32	33	33	33	33	32	32	32	32	32	32	32	32	32	32	32	32	33	33	33	33	32	32	32	32	32	32	32	32	33	33	33	33	33	33	33	33	32	32	32	32	32	32	32	32	32	32	32	32	36	36	36	36	32	32	32	32	32	32	32	32	32	32	32	32	32	32	32	32	32	32	32	32	32	32	32	32	36	36	36	36	34	34	34	34	36	36	36	36	36	36	36	36	34	34	34	34	38	38	38	38	38	38	38	38	39	39	39	39	39	39	39	39	37	37	37	37	40	40	40	40	41	41	41	41	43	43	43	43	45	45	45	45	53	53	53	53	60	60	60	60	67	67	67	67	65	65	65	65	69	69	69	69	66	66	66	66	73	73	73	73	67	67	67	67	70	70	70	70	68	68	68	68	61	61	61	61	54	54	54	54	61	61	61	61	52	52	52	52	47	47	47	47	48	48	48	48	43	43	43	43	40	40	40	40	38	38	38	38	37	37	37	37	38	38	38	38	38	38	38	38	38	38	38	38	38	38	38	38	38	38	38	38	38	38	38	38	38	38	38	38	38	38	38	38	34	34	34	34	36	36	36	36	34	34	34	34	32	32	32	32	30	30	30	30	30	30	30	30	30	30	30	30	32	32	32	32	32	32	32	32	30	30	30	30	31	31	31	31
60	60	60	60	50	50	50	50	43	43	43	43	60	60	60	60	64	64	64	64	49	49	49	49	48	48	48	48	48	48	48	48	47	47	47	47	52	52	52	52	57	57	57	57	55	55	55	55	48	48	48	48	51	51	51	51	49	49	49	49	48	48	48	48	44	44	44	44	37	37	37	37	45	45	45	45	57	57	57	57	48	48	48	48	31	31	31	31	37	37	37	37	39	39	39	39	38	38	38	38	32	32	32	32	33	33	33	33	32	32	32	32	33	33	33	33	32	32	32	32	32	32	32	32	32	32	32	32	33	33	33	33	32	32	32	32	32	32	32	32	33	33	33	33	33	33	33	33	32	32	32	32	32	32	32	32	32	32	32	32	36	36	36	36	32	32	32	32	32	32	32	32	32	32	32	32	32	32	32	32	32	32	32	32	32	32	32	32	36	36	36	36	34	34	34	34	36	36	36	36	36	36	36	36	34	34	34	34	38	38	38	38	38	38	38	38	39	39	39	39	39	39	39	39	37	37	37	37	40	40	40	40	41	41	41	41	43	43	43	43	45	45	45	45	53	53	53	53	60	60	60	60	67	67	67	67	65	65	65	65	69	69	69	69	66	66	66	66	73	73	73	73	67	67	67	67	70	70	70	70	68	68	68	68	61	61	61	61	54	54	54	54	61	61	61	61	52	52	52	52	47	47	47	47	48	48	48	48	43	43	43	43	40	40	40	40	38	38	38	38	37	37	37	37	38	38	38	38	38	38	38	38	38	38	38	38	38	38	38	38	38	38	38	38	38	38	38	38	38	38	38	38	38	38	38	38	34	34	34	34	36	36	36	36	34	34	34	34	32	32	32	32	30	30	30	30	30	30	30	30	30	30	30	30	32	32	32	32	32	32	32	32	30	30	30	30	31	31	31	31
60	60	60	60	50	50	50	50	43	43	43	43	60	60	60	60	64	64	64	64	49	49	49	49	48	48	48	48	48	48	48	48	47	47	47	47	52	52	52	52	57	57	57	57	55	55	55	55	48	48	48	48	51	51	51	51	49	49	49	49	48	48	48	48	44	44	44	44	37	37	37	37	45	45	45	45	57	57	57	57	48	48	48	48	31	31	31	31	37	37	37	37	39	39	39	39	38	38	38	38	32	32	32	32	33	33	33	33	32	32	32	32	33	33	33	33	32	32	32	32	32	32	32	32	32	32	32	32	33	33	33	33	32	32	32	32	32	32	32	32	33	33	33	33	33	33	33	33	32	32	32	32	32	32	32	32	32	32	32	32	36	36	36	36	32	32	32	32	32	32	32	32	32	32	32	32	32	32	32	32	32	32	32	32	32	32	32	32	36	36	36	36	34	34	34	34	36	36	36	36	36	36	36	36	34	34	34	34	38	38	38	38	38	38	38	38	39	39	39	39	39	39	39	39	37	37	37	37	40	40	40	40	41	41	41	41	43	43	43	43	45	45	45	45	53	53	53	53	60	60	60	60	67	67	67	67	65	65	65	65	69	69	69	69	66	66	66	66	73	73	73	73	67	67	67	67	70	70	70	70	68	68	68	68	61	61	61	61	54	54	54	54	61	61	61	61	52	52	52	52	47	47	47	47	48	48	48	48	43	43	43	43	40	40	40	40	38	38	38	38	37	37	37	37	38	38	38	38	38	38	38	38	38	38	38	38	38	38	38	38	38	38	38	38	38	38	38	38	38	38	38	38	38	38	38	38	34	34	34	34	36	36	36	36	34	34	34	34	32	32	32	32	30	30	30	30	30	30	30	30	30	30	30	30	32	32	32	32	32	32	32	32	30	30	30	30	31	31	31	31
60	60	60	60	50	50	50	50	43	43	43	43	60	60	60	60	64	64	64	64	49	49	49	49	48	48	48	48	48	48	48	48	47	47	47	47	52	52	52	52	57	57	57	57	55	55	55	55	48	48	48	48	51	51	51	51	49	49	49	49	48	48	48	48	44	44	44	44	37	37	37	37	45	45	45	45	57	57	57	57	48	48	48	48	31	31	31	31	37	37	37	37	39	39	39	39	38	38	38	38	32	32	32	32	33	33	33	33	32	32	32	32	33	33	33	33	32	32	32	32	32	32	32	32	32	32	32	32	33	33	33	33	32	32	32	32	32	32	32	32	33	33	33	33	33	33	33	33	32	32	32	32	32	32	32	32	32	32	32	32	36	36	36	36	32	32	32	32	32	32	32	32	32	32	32	32	32	32	32	32	32	32	32	32	32	32	32	32	36	36	36	36	34	34	34	34	36	36	36	36	36	36	36	36	34	34	34	34	38	38	38	38	38	38	38	38	39	39	39	39	39	39	39	39	37	37	37	37	40	40	40	40	41	41	41	41	43	43	43	43	45	45	45	45	53	53	53	53	60	60	60	60	67	67	67	67	65	65	65	65	69	69	69	69	66	66	66	66	73	73	73	73	67	67	67	67	70	70	70	70	68	68	68	68	61	61	61	61	54	54	54	54	61	61	61	61	52	52	52	52	47	47	47	47	48	48	48	48	43	43	43	43	40	40	40	40	38	38	38	38	37	37	37	37	38	38	38	38	38	38	38	38	38	38	38	38	38	38	38	38	38	38	38	38	38	38	38	38	38	38	38	38	38	38	38	38	34	34	34	34	36	36	36	36	34	34	34	34	32	32	32	32	30	30	30	30	30	30	30	30	30	30	30	30	32	32	32	32	32	32	32	32	30	30	30	30	31	31	31	31
67	67	67	67	56	56	56	56	48	48	48	48	45	45	45	45	59	59	59	59	61	61	61	61	48	48	48	48	48	48	48	48	45	45	45	45	47	47	47	47	52	52	52	52	56	56	56	56	55	55	55	55	55	55	55	55	57	57	57	57	57	57	57	57	52	52	52	52	44	44	44	44	41	41	41	41	45	45	45	45	28	28	28	28	37	37	37	37	39	39	39	39	39	39	39	39	38	38	38	38	32	32	32	32	32	32	32	32	32	32	32	32	32	32	32	32	32	32	32	32	32	32	32	32	33	33	33	33	33	33	33	33	32	32	32	32	32	32	32	32	32	32	32	32	32	32	32	32	32	32	32	32	36	36	36	36	36	36	36	36	36	36	36	36	36	36	36	36	32	32	32	32	32	32	32	32	32	32	32	32	32	32	32	32	32	32	32	32	32	32	32	32	34	34	34	34	34	34	34	34	38	38	38	38	38	38	38	38	38	38	38	38	38	38	38	38	39	39	39	39	39	39	39	39	39	39	39	39	39	39	39	39	40	40	40	40	40	40	40	40	43	43	43	43	47	47	47	47	51	51	51	51	58	58	58	58	59	59	59	59	63	63	63	63	67	67	67	67	71	71	71	71	72	72	72	72	73	73	73	73	70	70	70	70	73	73	73	73	59	59	59	59	66	66	66	66	60	60	60	60	61	61	61	61	48	48	48	48	46	46	46	46	44	44	44	44	40	40	40	40	37	37	37	37	38	38	38	38	39	39	39	39	38	38	38	38	39	39	39	39	38	38	38	38	38	38	38	38	38	38	38	38	33	33	33	33	32	32	32	32	38	38	38	38	32	32	32	32	32	32	32	32	31	31	31	31	31	31	31	31	31	31	31	31	33	33	33	33	32	32	32	32	36	36	36	36	31	31	31	31
67	67	67	67	56	56	56	56	48	48	48	48	45	45	45	45	59	59	59	59	61	61	61	61	48	48	48	48	48	48	48	48	45	45	45	45	47	47	47	47	52	52	52	52	56	56	56	56	55	55	55	55	55	55	55	55	57	57	57	57	57	57	57	57	52	52	52	52	44	44	44	44	41	41	41	41	45	45	45	45	28	28	28	28	37	37	37	37	39	39	39	39	39	39	39	39	38	38	38	38	32	32	32	32	32	32	32	32	32	32	32	32	32	32	32	32	32	32	32	32	32	32	32	32	33	33	33	33	33	33	33	33	32	32	32	32	32	32	32	32	32	32	32	32	32	32	32	32	32	32	32	32	36	36	36	36	36	36	36	36	36	36	36	36	36	36	36	36	32	32	32	32	32	32	32	32	32	32	32	32	32	32	32	32	32	32	32	32	32	32	32	32	34	34	34	34	34	34	34	34	38	38	38	38	38	38	38	38	38	38	38	38	38	38	38	38	39	39	39	39	39	39	39	39	39	39	39	39	39	39	39	39	40	40	40	40	40	40	40	40	43	43	43	43	47	47	47	47	51	51	51	51	58	58	58	58	59	59	59	59	63	63	63	63	67	67	67	67	71	71	71	71	72	72	72	72	73	73	73	73	70	70	70	70	73	73	73	73	59	59	59	59	66	66	66	66	60	60	60	60	61	61	61	61	48	48	48	48	46	46	46	46	44	44	44	44	40	40	40	40	37	37	37	37	38	38	38	38	39	39	39	39	38	38	38	38	39	39	39	39	38	38	38	38	38	38	38	38	38	38	38	38	33	33	33	33	32	32	32	32	38	38	38	38	32	32	32	32	32	32	32	32	31	31	31	31	31	31	31	31	31	31	31	31	33	33	33	33	32	32	32	32	36	36	36	36	31	31	31	31
67	67	67	67	56	56	56	56	48	48	48	48	45	45	45	45	59	59	59	59	61	61	61	61	48	48	48	48	48	48	48	48	45	45	45	45	47	47	47	47	52	52	52	52	56	56	56	56	55	55	55	55	55	55	55	55	57	57	57	57	57	57	57	57	52	52	52	52	44	44	44	44	41	41	41	41	45	45	45	45	28	28	28	28	37	37	37	37	39	39	39	39	39	39	39	39	38	38	38	38	32	32	32	32	32	32	32	32	32	32	32	32	32	32	32	32	32	32	32	32	32	32	32	32	33	33	33	33	33	33	33	33	32	32	32	32	32	32	32	32	32	32	32	32	32	32	32	32	32	32	32	32	36	36	36	36	36	36	36	36	36	36	36	36	36	36	36	36	32	32	32	32	32	32	32	32	32	32	32	32	32	32	32	32	32	32	32	32	32	32	32	32	34	34	34	34	34	34	34	34	38	38	38	38	38	38	38	38	38	38	38	38	38	38	38	38	39	39	39	39	39	39	39	39	39	39	39	39	39	39	39	39	40	40	40	40	40	40	40	40	43	43	43	43	47	47	47	47	51	51	51	51	58	58	58	58	59	59	59	59	63	63	63	63	67	67	67	67	71	71	71	71	72	72	72	72	73	73	73	73	70	70	70	70	73	73	73	73	59	59	59	59	66	66	66	66	60	60	60	60	61	61	61	61	48	48	48	48	46	46	46	46	44	44	44	44	40	40	40	40	37	37	37	37	38	38	38	38	39	39	39	39	38	38	38	38	39	39	39	39	38	38	38	38	38	38	38	38	38	38	38	38	33	33	33	33	32	32	32	32	38	38	38	38	32	32	32	32	32	32	32	32	31	31	31	31	31	31	31	31	31	31	31	31	33	33	33	33	32	32	32	32	36	36	36	36	31	31	31	31
67	67	67	67	56	56	56	56	48	48	48	48	45	45	45	45	59	59	59	59	61	61	61	61	48	48	48	48	48	48	48	48	45	45	45	45	47	47	47	47	52	52	52	52	56	56	56	56	55	55	55	55	55	55	55	55	57	57	57	57	57	57	57	57	52	52	52	52	44	44	44	44	41	41	41	41	45	45	45	45	28	28	28	28	37	37	37	37	39	39	39	39	39	39	39	39	38	38	38	38	32	32	32	32	32	32	32	32	32	32	32	32	32	32	32	32	32	32	32	32	32	32	32	32	33	33	33	33	33	33	33	33	32	32	32	32	32	32	32	32	32	32	32	32	32	32	32	32	32	32	32	32	36	36	36	36	36	36	36	36	36	36	36	36	36	36	36	36	32	32	32	32	32	32	32	32	32	32	32	32	32	32	32	32	32	32	32	32	32	32	32	32	34	34	34	34	34	34	34	34	38	38	38	38	38	38	38	38	38	38	38	38	38	38	38	38	39	39	39	39	39	39	39	39	39	39	39	39	39	39	39	39	40	40	40	40	40	40	40	40	43	43	43	43	47	47	47	47	51	51	51	51	58	58	58	58	59	59	59	59	63	63	63	63	67	67	67	67	71	71	71	71	72	72	72	72	73	73	73	73	70	70	70	70	73	73	73	73	59	59	59	59	66	66	66	66	60	60	60	60	61	61	61	61	48	48	48	48	46	46	46	46	44	44	44	44	40	40	40	40	37	37	37	37	38	38	38	38	39	39	39	39	38	38	38	38	39	39	39	39	38	38	38	38	38	38	38	38	38	38	38	38	33	33	33	33	32	32	32	32	38	38	38	38	32	32	32	32	32	32	32	32	31	31	31	31	31	31	31	31	31	31	31	31	33	33	33	33	32	32	32	32	36	36	36	36	31	31	31	31
69	69	69	69	61	61	61	61	54	54	54	54	45	45	45	45	48	48	48	48	64	64	64	64	53	53	53	53	44	44	44	44	43	43	43	43	44	44	44	44	48	48	48	48	57	57	57	57	58	58	58	58	58	58	58	58	59	59	59	59	59	59	59	59	57	57	57	57	48	48	48	48	40	40	40	40	30	30	30	30	38	38	38	38	37	37	37	37	40	40	40	40	37	37	37	37	38	38	38	38	33	33	33	33	32	32	32	32	33	33	33	33	32	32	32	32	33	33	33	33	30	30	30	30	30	30	30	30	30	30	30	30	30	30	30	30	33	33	33	33	33	33	33	33	32	32	32	32	32	32	32	32	34	34	34	34	34	34	34	34	34	34	34	34	34	34	34	34	36	36	36	36	32	32	32	32	32	32	32	32	33	33	33	33	32	32	32	32	32	32	32	32	36	36	36	36	38	38	38	38	38	38	38	38	38	38	38	38	38	38	38	38	38	38	38	38	37	37	37	37	40	40	40	40	37	37	37	37	40	40	40	40	40	40	40	40	40	40	40	40	43	43	43	43	48	48	48	48	50	50	50	50	49	49	49	49	54	54	54	54	56	56	56	56	61	61	61	61	64	64	64	64	66	66	66	66	68	68	68	68	66	66	66	66	68	68	68	68	61	61	61	61	71	71	71	71	63	63	63	63	61	61	61	61	48	48	48	48	46	46	46	46	45	45	45	45	37	37	37	37	37	37	37	37	38	38	38	38	38	38	38	38	40	40	40	40	37	37	37	37	38	38	38	38	38	38	38	38	38	38	38	38	32	32	32	32	32	32	32	32	34	34	34	34	33	33	33	33	33	33	33	33	27	27	27	27	30	30	30	30	33	33	33	33	33	33	33	33	32	32	32	32	36	36	36	36	31	31	31	31
69	69	69	69	61	61	61	61	54	54	54	54	45	45	45	45	48	48	48	48	64	64	64	64	53	53	53	53	44	44	44	44	43	43	43	43	44	44	44	44	48	48	48	48	57	57	57	57	58	58	58	58	58	58	58	58	59	59	59	59	59	59	59	59	57	57	57	57	48	48	48	48	40	40	40	40	30	30	30	30	38	38	38	38	37	37	37	37	40	40	40	40	37	37	37	37	38	38	38	38	33	33	33	33	32	32	32	32	33	33	33	33	32	32	32	32	33	33	33	33	30	30	30	30	30	30	30	30	30	30	30	30	30	30	30	30	33	33	33	33	33	33	33	33	32	32	32	32	32	32	32	32	34	34	34	34	34	34	34	34	34	34	34	34	34	34	34	34	36	36	36	36	32	32	32	32	32	32	32	32	33	33	33	33	32	32	32	32	32	32	32	32	36	36	36	36	38	38	38	38	38	38	38	38	38	38	38	38	38	38	38	38	38	38	38	38	37	37	37	37	40	40	40	40	37	37	37	37	40	40	40	40	40	40	40	40	40	40	40	40	43	43	43	43	48	48	48	48	50	50	50	50	49	49	49	49	54	54	54	54	56	56	56	56	61	61	61	61	64	64	64	64	66	66	66	66	68	68	68	68	66	66	66	66	68	68	68	68	61	61	61	61	71	71	71	71	63	63	63	63	61	61	61	61	48	48	48	48	46	46	46	46	45	45	45	45	37	37	37	37	37	37	37	37	38	38	38	38	38	38	38	38	40	40	40	40	37	37	37	37	38	38	38	38	38	38	38	38	38	38	38	38	32	32	32	32	32	32	32	32	34	34	34	34	33	33	33	33	33	33	33	33	27	27	27	27	30	30	30	30	33	33	33	33	33	33	33	33	32	32	32	32	36	36	36	36	31	31	31	31
69	69	69	69	61	61	61	61	54	54	54	54	45	45	45	45	48	48	48	48	64	64	64	64	53	53	53	53	44	44	44	44	43	43	43	43	44	44	44	44	48	48	48	48	57	57	57	57	58	58	58	58	58	58	58	58	59	59	59	59	59	59	59	59	57	57	57	57	48	48	48	48	40	40	40	40	30	30	30	30	38	38	38	38	37	37	37	37	40	40	40	40	37	37	37	37	38	38	38	38	33	33	33	33	32	32	32	32	33	33	33	33	32	32	32	32	33	33	33	33	30	30	30	30	30	30	30	30	30	30	30	30	30	30	30	30	33	33	33	33	33	33	33	33	32	32	32	32	32	32	32	32	34	34	34	34	34	34	34	34	34	34	34	34	34	34	34	34	36	36	36	36	32	32	32	32	32	32	32	32	33	33	33	33	32	32	32	32	32	32	32	32	36	36	36	36	38	38	38	38	38	38	38	38	38	38	38	38	38	38	38	38	38	38	38	38	37	37	37	37	40	40	40	40	37	37	37	37	40	40	40	40	40	40	40	40	40	40	40	40	43	43	43	43	48	48	48	48	50	50	50	50	49	49	49	49	54	54	54	54	56	56	56	56	61	61	61	61	64	64	64	64	66	66	66	66	68	68	68	68	66	66	66	66	68	68	68	68	61	61	61	61	71	71	71	71	63	63	63	63	61	61	61	61	48	48	48	48	46	46	46	46	45	45	45	45	37	37	37	37	37	37	37	37	38	38	38	38	38	38	38	38	40	40	40	40	37	37	37	37	38	38	38	38	38	38	38	38	38	38	38	38	32	32	32	32	32	32	32	32	34	34	34	34	33	33	33	33	33	33	33	33	27	27	27	27	30	30	30	30	33	33	33	33	33	33	33	33	32	32	32	32	36	36	36	36	31	31	31	31
69	69	69	69	61	61	61	61	54	54	54	54	45	45	45	45	48	48	48	48	64	64	64	64	53	53	53	53	44	44	44	44	43	43	43	43	44	44	44	44	48	48	48	48	57	57	57	57	58	58	58	58	58	58	58	58	59	59	59	59	59	59	59	59	57	57	57	57	48	48	48	48	40	40	40	40	30	30	30	30	38	38	38	38	37	37	37	37	40	40	40	40	37	37	37	37	38	38	38	38	33	33	33	33	32	32	32	32	33	33	33	33	32	32	32	32	33	33	33	33	30	30	30	30	30	30	30	30	30	30	30	30	30	30	30	30	33	33	33	33	33	33	33	33	32	32	32	32	32	32	32	32	34	34	34	34	34	34	34	34	34	34	34	34	34	34	34	34	36	36	36	36	32	32	32	32	32	32	32	32	33	33	33	33	32	32	32	32	32	32	32	32	36	36	36	36	38	38	38	38	38	38	38	38	38	38	38	38	38	38	38	38	38	38	38	38	37	37	37	37	40	40	40	40	37	37	37	37	40	40	40	40	40	40	40	40	40	40	40	40	43	43	43	43	48	48	48	48	50	50	50	50	49	49	49	49	54	54	54	54	56	56	56	56	61	61	61	61	64	64	64	64	66	66	66	66	68	68	68	68	66	66	66	66	68	68	68	68	61	61	61	61	71	71	71	71	63	63	63	63	61	61	61	61	48	48	48	48	46	46	46	46	45	45	45	45	37	37	37	37	37	37	37	37	38	38	38	38	38	38	38	38	40	40	40	40	37	37	37	37	38	38	38	38	38	38	38	38	38	38	38	38	32	32	32	32	32	32	32	32	34	34	34	34	33	33	33	33	33	33	33	33	27	27	27	27	30	30	30	30	33	33	33	33	33	33	33	33	32	32	32	32	36	36	36	36	31	31	31	31
69	69	69	69	62	62	62	62	56	56	56	56	49	49	49	49	43	43	43	43	51	51	51	51	56	56	56	56	50	50	50	50	43	43	43	43	42	42	42	42	43	43	43	43	55	55	55	55	59	59	59	59	59	59	59	59	61	61	61	61	61	61	61	61	57	57	57	57	48	48	48	48	38	38	38	38	29	29	29	29	39	39	39	39	40	40	40	40	40	40	40	40	37	37	37	37	38	38	38	38	32	32	32	32	32	32	32	32	32	32	32	32	32	32	32	32	30	30	30	30	30	30	30	30	30	30	30	30	30	30	30	30	31	31	31	31	31	31	31	31	31	31	31	31	33	33	33	33	32	32	32	32	32	32	32	32	36	36	36	36	34	34	34	34	34	34	34	34	34	34	34	34	36	36	36	36	36	36	36	36	36	36	36	36	36	36	36	36	32	32	32	32	32	32	32	32	38	38	38	38	38	38	38	38	34	34	34	34	38	38	38	38	38	38	38	38	39	39	39	39	37	37	37	37	37	37	37	37	37	37	37	37	40	40	40	40	41	41	41	41	43	43	43	43	48	48	48	48	50	50	50	50	47	47	47	47	48	48	48	48	50	50	50	50	57	57	57	57	58	58	58	58	60	60	60	60	68	68	68	68	66	66	66	66	67	67	67	67	58	58	58	58	65	65	65	65	61	61	61	61	55	55	55	55	47	47	47	47	43	43	43	43	40	40	40	40	34	34	34	34	37	37	37	37	32	32	32	32	38	38	38	38	40	40	40	40	38	38	38	38	39	39	39	39	38	38	38	38	38	38	38	38	34	34	34	34	36	36	36	36	38	38	38	38	32	32	32	32	30	30	30	30	31	31	31	31	33	33	33	33	32	32	32	32	32	32	32	32	30	30	30	30	33	33	33	33	27	27	27	27
69	69	69	69	62	62	62	62	56	56	56	56	49	49	49	49	43	43	43	43	51	51	51	51	56	56	56	56	50	50	50	50	43	43	43	43	42	42	42	42	43	43	43	43	55	55	55	55	59	59	59	59	59	59	59	59	61	61	61	61	61	61	61	61	57	57	57	57	48	48	48	48	38	38	38	38	29	29	29	29	39	39	39	39	40	40	40	40	40	40	40	40	37	37	37	37	38	38	38	38	32	32	32	32	32	32	32	32	32	32	32	32	32	32	32	32	30	30	30	30	30	30	30	30	30	30	30	30	30	30	30	30	31	31	31	31	31	31	31	31	31	31	31	31	33	33	33	33	32	32	32	32	32	32	32	32	36	36	36	36	34	34	34	34	34	34	34	34	34	34	34	34	36	36	36	36	36	36	36	36	36	36	36	36	36	36	36	36	32	32	32	32	32	32	32	32	38	38	38	38	38	38	38	38	34	34	34	34	38	38	38	38	38	38	38	38	39	39	39	39	37	37	37	37	37	37	37	37	37	37	37	37	40	40	40	40	41	41	41	41	43	43	43	43	48	48	48	48	50	50	50	50	47	47	47	47	48	48	48	48	50	50	50	50	57	57	57	57	58	58	58	58	60	60	60	60	68	68	68	68	66	66	66	66	67	67	67	67	58	58	58	58	65	65	65	65	61	61	61	61	55	55	55	55	47	47	47	47	43	43	43	43	40	40	40	40	34	34	34	34	37	37	37	37	32	32	32	32	38	38	38	38	40	40	40	40	38	38	38	38	39	39	39	39	38	38	38	38	38	38	38	38	34	34	34	34	36	36	36	36	38	38	38	38	32	32	32	32	30	30	30	30	31	31	31	31	33	33	33	33	32	32	32	32	32	32	32	32	30	30	30	30	33	33	33	33	27	27	27	27
69	69	69	69	62	62	62	62	56	56	56	56	49	49	49	49	43	43	43	43	51	51	51	51	56	56	56	56	50	50	50	50	43	43	43	43	42	42	42	42	43	43	43	43	55	55	55	55	59	59	59	59	59	59	59	59	61	61	61	61	61	61	61	61	57	57	57	57	48	48	48	48	38	38	38	38	29	29	29	29	39	39	39	39	40	40	40	40	40	40	40	40	37	37	37	37	38	38	38	38	32	32	32	32	32	32	32	32	32	32	32	32	32	32	32	32	30	30	30	30	30	30	30	30	30	30	30	30	30	30	30	30	31	31	31	31	31	31	31	31	31	31	31	31	33	33	33	33	32	32	32	32	32	32	32	32	36	36	36	36	34	34	34	34	34	34	34	34	34	34	34	34	36	36	36	36	36	36	36	36	36	36	36	36	36	36	36	36	32	32	32	32	32	32	32	32	38	38	38	38	38	38	38	38	34	34	34	34	38	38	38	38	38	38	38	38	39	39	39	39	37	37	37	37	37	37	37	37	37	37	37	37	40	40	40	40	41	41	41	41	43	43	43	43	48	48	48	48	50	50	50	50	47	47	47	47	48	48	48	48	50	50	50	50	57	57	57	57	58	58	58	58	60	60	60	60	68	68	68	68	66	66	66	66	67	67	67	67	58	58	58	58	65	65	65	65	61	61	61	61	55	55	55	55	47	47	47	47	43	43	43	43	40	40	40	40	34	34	34	34	37	37	37	37	32	32	32	32	38	38	38	38	40	40	40	40	38	38	38	38	39	39	39	39	38	38	38	38	38	38	38	38	34	34	34	34	36	36	36	36	38	38	38	38	32	32	32	32	30	30	30	30	31	31	31	31	33	33	33	33	32	32	32	32	32	32	32	32	30	30	30	30	33	33	33	33	27	27	27	27
69	69	69	69	62	62	62	62	56	56	56	56	49	49	49	49	43	43	43	43	51	51	51	51	56	56	56	56	50	50	50	50	43	43	43	43	42	42	42	42	43	43	43	43	55	55	55	55	59	59	59	59	59	59	59	59	61	61	61	61	61	61	61	61	57	57	57	57	48	48	48	48	38	38	38	38	29	29	29	29	39	39	39	39	40	40	40	40	40	40	40	40	37	37	37	37	38	38	38	38	32	32	32	32	32	32	32	32	32	32	32	32	32	32	32	32	30	30	30	30	30	30	30	30	30	30	30	30	30	30	30	30	31	31	31	31	31	31	31	31	31	31	31	31	33	33	33	33	32	32	32	32	32	32	32	32	36	36	36	36	34	34	34	34	34	34	34	34	34	34	34	34	36	36	36	36	36	36	36	36	36	36	36	36	36	36	36	36	32	32	32	32	32	32	32	32	38	38	38	38	38	38	38	38	34	34	34	34	38	38	38	38	38	38	38	38	39	39	39	39	37	37	37	37	37	37	37	37	37	37	37	37	40	40	40	40	41	41	41	41	43	43	43	43	48	48	48	48	50	50	50	50	47	47	47	47	48	48	48	48	50	50	50	50	57	57	57	57	58	58	58	58	60	60	60	60	68	68	68	68	66	66	66	66	67	67	67	67	58	58	58	58	65	65	65	65	61	61	61	61	55	55	55	55	47	47	47	47	43	43	43	43	40	40	40	40	34	34	34	34	37	37	37	37	32	32	32	32	38	38	38	38	40	40	40	40	38	38	38	38	39	39	39	39	38	38	38	38	38	38	38	38	34	34	34	34	36	36	36	36	38	38	38	38	32	32	32	32	30	30	30	30	31	31	31	31	33	33	33	33	32	32	32	32	32	32	32	32	30	30	30	30	33	33	33	33	27	27	27	27
64	64	64	64	62	62	62	62	57	57	57	57	51	51	51	51	47	47	47	47	41	41	41	41	49	49	49	49	53	53	53	53	47	47	47	47	41	41	41	41	43	43	43	43	49	49	49	49	60	60	60	60	59	59	59	59	61	61	61	61	61	61	61	61	60	60	60	60	51	51	51	51	33	33	33	33	30	30	30	30	37	37	37	37	37	37	37	37	37	37	37	37	37	37	37	37	38	38	38	38	32	32	32	32	31	31	31	31	36	36	36	36	32	32	32	32	32	32	32	32	33	33	33	33	33	33	33	33	32	32	32	32	33	33	33	33	30	30	30	30	31	31	31	31	30	30	30	30	33	33	33	33	33	33	33	33	33	33	33	33	32	32	32	32	36	36	36	36	34	34	34	34	32	32	32	32	32	32	32	32	34	34	34	34	34	34	34	34	34	34	34	34	38	38	38	38	38	38	38	38	38	38	38	38	38	38	38	38	38	38	38	38	39	39	39	39	37	37	37	37	40	40	40	40	40	40	40	40	37	37	37	37	40	40	40	40	40	40	40	40	43	43	43	43	45	45	45	45	45	45	45	45	46	46	46	46	46	46	46	46	47	47	47	47	49	49	49	49	49	49	49	49	51	51	51	51	61	61	61	61	65	65	65	65	69	69	69	69	63	63	63	63	65	65	65	65	64	64	64	64	48	48	48	48	44	44	44	44	37	37	37	37	33	33	33	33	32	32	32	32	32	32	32	32	33	33	33	33	32	32	32	32	38	38	38	38	36	36	36	36	38	38	38	38	38	38	38	38	36	36	36	36	34	34	34	34	32	32	32	32	38	38	38	38	36	36	36	36	33	33	33	33	30	30	30	30	30	30	30	30	30	30	30	30	33	33	33	33	30	30	30	30	33	33	33	33	29	29	29	29
64	64	64	64	62	62	62	62	57	57	57	57	51	51	51	51	47	47	47	47	41	41	41	41	49	49	49	49	53	53	53	53	47	47	47	47	41	41	41	41	43	43	43	43	49	49	49	49	60	60	60	60	59	59	59	59	61	61	61	61	61	61	61	61	60	60	60	60	51	51	51	51	33	33	33	33	30	30	30	30	37	37	37	37	37	37	37	37	37	37	37	37	37	37	37	37	38	38	38	38	32	32	32	32	31	31	31	31	36	36	36	36	32	32	32	32	32	32	32	32	33	33	33	33	33	33	33	33	32	32	32	32	33	33	33	33	30	30	30	30	31	31	31	31	30	30	30	30	33	33	33	33	33	33	33	33	33	33	33	33	32	32	32	32	36	36	36	36	34	34	34	34	32	32	32	32	32	32	32	32	34	34	34	34	34	34	34	34	34	34	34	34	38	38	38	38	38	38	38	38	38	38	38	38	38	38	38	38	38	38	38	38	39	39	39	39	37	37	37	37	40	40	40	40	40	40	40	40	37	37	37	37	40	40	40	40	40	40	40	40	43	43	43	43	45	45	45	45	45	45	45	45	46	46	46	46	46	46	46	46	47	47	47	47	49	49	49	49	49	49	49	49	51	51	51	51	61	61	61	61	65	65	65	65	69	69	69	69	63	63	63	63	65	65	65	65	64	64	64	64	48	48	48	48	44	44	44	44	37	37	37	37	33	33	33	33	32	32	32	32	32	32	32	32	33	33	33	33	32	32	32	32	38	38	38	38	36	36	36	36	38	38	38	38	38	38	38	38	36	36	36	36	34	34	34	34	32	32	32	32	38	38	38	38	36	36	36	36	33	33	33	33	30	30	30	30	30	30	30	30	30	30	30	30	33	33	33	33	30	30	30	30	33	33	33	33	29	29	29	29
64	64	64	64	62	62	62	62	57	57	57	57	51	51	51	51	47	47	47	47	41	41	41	41	49	49	49	49	53	53	53	53	47	47	47	47	41	41	41	41	43	43	43	43	49	49	49	49	60	60	60	60	59	59	59	59	61	61	61	61	61	61	61	61	60	60	60	60	51	51	51	51	33	33	33	33	30	30	30	30	37	37	37	37	37	37	37	37	37	37	37	37	37	37	37	37	38	38	38	38	32	32	32	32	31	31	31	31	36	36	36	36	32	32	32	32	32	32	32	32	33	33	33	33	33	33	33	33	32	32	32	32	33	33	33	33	30	30	30	30	31	31	31	31	30	30	30	30	33	33	33	33	33	33	33	33	33	33	33	33	32	32	32	32	36	36	36	36	34	34	34	34	32	32	32	32	32	32	32	32	34	34	34	34	34	34	34	34	34	34	34	34	38	38	38	38	38	38	38	38	38	38	38	38	38	38	38	38	38	38	38	38	39	39	39	39	37	37	37	37	40	40	40	40	40	40	40	40	37	37	37	37	40	40	40	40	40	40	40	40	43	43	43	43	45	45	45	45	45	45	45	45	46	46	46	46	46	46	46	46	47	47	47	47	49	49	49	49	49	49	49	49	51	51	51	51	61	61	61	61	65	65	65	65	69	69	69	69	63	63	63	63	65	65	65	65	64	64	64	64	48	48	48	48	44	44	44	44	37	37	37	37	33	33	33	33	32	32	32	32	32	32	32	32	33	33	33	33	32	32	32	32	38	38	38	38	36	36	36	36	38	38	38	38	38	38	38	38	36	36	36	36	34	34	34	34	32	32	32	32	38	38	38	38	36	36	36	36	33	33	33	33	30	30	30	30	30	30	30	30	30	30	30	30	33	33	33	33	30	30	30	30	33	33	33	33	29	29	29	29
64	64	64	64	62	62	62	62	57	57	57	57	51	51	51	51	47	47	47	47	41	41	41	41	49	49	49	49	53	53	53	53	47	47	47	47	41	41	41	41	43	43	43	43	49	49	49	49	60	60	60	60	59	59	59	59	61	61	61	61	61	61	61	61	60	60	60	60	51	51	51	51	33	33	33	33	30	30	30	30	37	37	37	37	37	37	37	37	37	37	37	37	37	37	37	37	38	38	38	38	32	32	32	32	31	31	31	31	36	36	36	36	32	32	32	32	32	32	32	32	33	33	33	33	33	33	33	33	32	32	32	32	33	33	33	33	30	30	30	30	31	31	31	31	30	30	30	30	33	33	33	33	33	33	33	33	33	33	33	33	32	32	32	32	36	36	36	36	34	34	34	34	32	32	32	32	32	32	32	32	34	34	34	34	34	34	34	34	34	34	34	34	38	38	38	38	38	38	38	38	38	38	38	38	38	38	38	38	38	38	38	38	39	39	39	39	37	37	37	37	40	40	40	40	40	40	40	40	37	37	37	37	40	40	40	40	40	40	40	40	43	43	43	43	45	45	45	45	45	45	45	45	46	46	46	46	46	46	46	46	47	47	47	47	49	49	49	49	49	49	49	49	51	51	51	51	61	61	61	61	65	65	65	65	69	69	69	69	63	63	63	63	65	65	65	65	64	64	64	64	48	48	48	48	44	44	44	44	37	37	37	37	33	33	33	33	32	32	32	32	32	32	32	32	33	33	33	33	32	32	32	32	38	38	38	38	36	36	36	36	38	38	38	38	38	38	38	38	36	36	36	36	34	34	34	34	32	32	32	32	38	38	38	38	36	36	36	36	33	33	33	33	30	30	30	30	30	30	30	30	30	30	30	30	33	33	33	33	30	30	30	30	33	33	33	33	29	29	29	29
53	53	53	53	58	58	58	58	57	57	57	57	51	51	51	51	50	50	50	50	45	45	45	45	44	44	44	44	52	52	52	52	51	51	51	51	44	44	44	44	42	42	42	42	48	48	48	48	57	57	57	57	58	58	58	58	58	58	58	58	59	59	59	59	64	64	64	64	57	57	57	57	27	27	27	27	39	39	39	39	37	37	37	37	39	39	39	39	39	39	39	39	39	39	39	39	38	38	38	38	32	32	32	32	31	31	31	31	38	38	38	38	32	32	32	32	32	32	32	32	33	33	33	33	33	33	33	33	33	33	33	33	33	33	33	33	33	33	33	33	30	30	30	30	30	30	30	30	33	33	33	33	33	33	33	33	30	30	30	30	30	30	30	30	32	32	32	32	36	36	36	36	36	36	36	36	32	32	32	32	32	32	32	32	36	36	36	36	38	38	38	38	38	38	38	38	38	38	38	38	38	38	38	38	38	38	38	38	37	37	37	37	40	40	40	40	41	41	41	41	41	41	41	41	40	40	40	40	41	41	41	41	41	41	41	41	41	41	41	41	44	44	44	44	45	45	45	45	44	44	44	44	45	45	45	45	45	45	45	45	45	45	45	45	47	47	47	47	48	48	48	48	48	48	48	48	67	67	67	67	70	70	70	70	70	70	70	70	67	67	67	67	61	61	61	61	58	58	58	58	51	51	51	51	43	43	43	43	40	40	40	40	40	40	40	40	32	32	32	32	30	30	30	30	33	33	33	33	30	30	30	30	30	30	30	30	30	30	30	30	30	30	30	30	32	32	32	32	32	32	32	32	32	32	32	32	32	32	32	32	36	36	36	36	36	36	36	36	34	34	34	34	32	32	32	32	30	30	30	30	27	27	27	27	31	31	31	31	32	32	32	32	32	32	32	32	31	31	31	31
53	53	53	53	58	58	58	58	57	57	57	57	51	51	51	51	50	50	50	50	45	45	45	45	44	44	44	44	52	52	52	52	51	51	51	51	44	44	44	44	42	42	42	42	48	48	48	48	57	57	57	57	58	58	58	58	58	58	58	58	59	59	59	59	64	64	64	64	57	57	57	57	27	27	27	27	39	39	39	39	37	37	37	37	39	39	39	39	39	39	39	39	39	39	39	39	38	38	38	38	32	32	32	32	31	31	31	31	38	38	38	38	32	32	32	32	32	32	32	32	33	33	33	33	33	33	33	33	33	33	33	33	33	33	33	33	33	33	33	33	30	30	30	30	30	30	30	30	33	33	33	33	33	33	33	33	30	30	30	30	30	30	30	30	32	32	32	32	36	36	36	36	36	36	36	36	32	32	32	32	32	32	32	32	36	36	36	36	38	38	38	38	38	38	38	38	38	38	38	38	38	38	38	38	38	38	38	38	37	37	37	37	40	40	40	40	41	41	41	41	41	41	41	41	40	40	40	40	41	41	41	41	41	41	41	41	41	41	41	41	44	44	44	44	45	45	45	45	44	44	44	44	45	45	45	45	45	45	45	45	45	45	45	45	47	47	47	47	48	48	48	48	48	48	48	48	67	67	67	67	70	70	70	70	70	70	70	70	67	67	67	67	61	61	61	61	58	58	58	58	51	51	51	51	43	43	43	43	40	40	40	40	40	40	40	40	32	32	32	32	30	30	30	30	33	33	33	33	30	30	30	30	30	30	30	30	30	30	30	30	30	30	30	30	32	32	32	32	32	32	32	32	32	32	32	32	32	32	32	32	36	36	36	36	36	36	36	36	34	34	34	34	32	32	32	32	30	30	30	30	27	27	27	27	31	31	31	31	32	32	32	32	32	32	32	32	31	31	31	31
53	53	53	53	58	58	58	58	57	57	57	57	51	51	51	51	50	50	50	50	45	45	45	45	44	44	44	44	52	52	52	52	51	51	51	51	44	44	44	44	42	42	42	42	48	48	48	48	57	57	57	57	58	58	58	58	58	58	58	58	59	59	59	59	64	64	64	64	57	57	57	57	27	27	27	27	39	39	39	39	37	37	37	37	39	39	39	39	39	39	39	39	39	39	39	39	38	38	38	38	32	32	32	32	31	31	31	31	38	38	38	38	32	32	32	32	32	32	32	32	33	33	33	33	33	33	33	33	33	33	33	33	33	33	33	33	33	33	33	33	30	30	30	30	30	30	30	30	33	33	33	33	33	33	33	33	30	30	30	30	30	30	30	30	32	32	32	32	36	36	36	36	36	36	36	36	32	32	32	32	32	32	32	32	36	36	36	36	38	38	38	38	38	38	38	38	38	38	38	38	38	38	38	38	38	38	38	38	37	37	37	37	40	40	40	40	41	41	41	41	41	41	41	41	40	40	40	40	41	41	41	41	41	41	41	41	41	41	41	41	44	44	44	44	45	45	45	45	44	44	44	44	45	45	45	45	45	45	45	45	45	45	45	45	47	47	47	47	48	48	48	48	48	48	48	48	67	67	67	67	70	70	70	70	70	70	70	70	67	67	67	67	61	61	61	61	58	58	58	58	51	51	51	51	43	43	43	43	40	40	40	40	40	40	40	40	32	32	32	32	30	30	30	30	33	33	33	33	30	30	30	30	30	30	30	30	30	30	30	30	30	30	30	30	32	32	32	32	32	32	32	32	32	32	32	32	32	32	32	32	36	36	36	36	36	36	36	36	34	34	34	34	32	32	32	32	30	30	30	30	27	27	27	27	31	31	31	31	32	32	32	32	32	32	32	32	31	31	31	31
53	53	53	53	58	58	58	58	57	57	57	57	51	51	51	51	50	50	50	50	45	45	45	45	44	44	44	44	52	52	52	52	51	51	51	51	44	44	44	44	42	42	42	42	48	48	48	48	57	57	57	57	58	58	58	58	58	58	58	58	59	59	59	59	64	64	64	64	57	57	57	57	27	27	27	27	39	39	39	39	37	37	37	37	39	39	39	39	39	39	39	39	39	39	39	39	38	38	38	38	32	32	32	32	31	31	31	31	38	38	38	38	32	32	32	32	32	32	32	32	33	33	33	33	33	33	33	33	33	33	33	33	33	33	33	33	33	33	33	33	30	30	30	30	30	30	30	30	33	33	33	33	33	33	33	33	30	30	30	30	30	30	30	30	32	32	32	32	36	36	36	36	36	36	36	36	32	32	32	32	32	32	32	32	36	36	36	36	38	38	38	38	38	38	38	38	38	38	38	38	38	38	38	38	38	38	38	38	37	37	37	37	40	40	40	40	41	41	41	41	41	41	41	41	40	40	40	40	41	41	41	41	41	41	41	41	41	41	41	41	44	44	44	44	45	45	45	45	44	44	44	44	45	45	45	45	45	45	45	45	45	45	45	45	47	47	47	47	48	48	48	48	48	48	48	48	67	67	67	67	70	70	70	70	70	70	70	70	67	67	67	67	61	61	61	61	58	58	58	58	51	51	51	51	43	43	43	43	40	40	40	40	40	40	40	40	32	32	32	32	30	30	30	30	33	33	33	33	30	30	30	30	30	30	30	30	30	30	30	30	30	30	30	30	32	32	32	32	32	32	32	32	32	32	32	32	32	32	32	32	36	36	36	36	36	36	36	36	34	34	34	34	32	32	32	32	30	30	30	30	27	27	27	27	31	31	31	31	32	32	32	32	32	32	32	32	31	31	31	31
48	48	48	48	52	52	52	52	52	52	52	52	51	51	51	51	54	54	54	54	49	49	49	49	43	43	43	43	45	45	45	45	53	53	53	53	48	48	48	48	43	43	43	43	45	45	45	45	50	50	50	50	56	56	56	56	58	58	58	58	57	57	57	57	62	62	62	62	57	57	57	57	31	31	31	31	39	39	39	39	39	39	39	39	38	38	38	38	39	39	39	39	37	37	37	37	36	36	36	36	32	32	32	32	34	34	34	34	34	34	34	34	36	36	36	36	36	36	36	36	32	32	32	32	32	32	32	32	32	32	32	32	33	33	33	33	33	33	33	33	33	33	33	33	33	33	33	33	33	33	33	33	32	32	32	32	33	33	33	33	30	30	30	30	30	30	30	30	32	32	32	32	32	32	32	32	34	34	34	34	32	32	32	32	36	36	36	36	34	34	34	34	34	34	34	34	34	34	34	34	34	34	34	34	38	38	38	38	38	38	38	38	37	37	37	37	43	43	43	43	43	43	43	43	42	42	42	42	43	43	43	43	43	43	43	43	42	42	42	42	43	43	43	43	43	43	43	43	43	43	43	43	45	45	45	45	44	44	44	44	45	45	45	45	43	43	43	43	45	45	45	45	47	47	47	47	63	63	63	63	72	72	72	72	66	66	66	66	67	67	67	67	58	58	58	58	51	51	51	51	45	45	45	45	42	42	42	42	37	37	37	37	38	38	38	38	32	32	32	32	30	30	30	30	30	30	30	30	30	30	30	30	31	31	31	31	30	30	30	30	31	31	31	31	32	32	32	32	33	33	33	33	33	33	33	33	30	30	30	30	32	32	32	32	36	36	36	36	32	32	32	32	32	32	32	32	31	31	31	31	30	30	30	30	32	32	32	32	36	36	36	36	32	32	32	32	33	33	33	33
48	48	48	48	52	52	52	52	52	52	52	52	51	51	51	51	54	54	54	54	49	49	49	49	43	43	43	43	45	45	45	45	53	53	53	53	48	48	48	48	43	43	43	43	45	45	45	45	50	50	50	50	56	56	56	56	58	58	58	58	57	57	57	57	62	62	62	62	57	57	57	57	31	31	31	31	39	39	39	39	39	39	39	39	38	38	38	38	39	39	39	39	37	37	37	37	36	36	36	36	32	32	32	32	34	34	34	34	34	34	34	34	36	36	36	36	36	36	36	36	32	32	32	32	32	32	32	32	32	32	32	32	33	33	33	33	33	33	33	33	33	33	33	33	33	33	33	33	33	33	33	33	32	32	32	32	33	33	33	33	30	30	30	30	30	30	30	30	32	32	32	32	32	32	32	32	34	34	34	34	32	32	32	32	36	36	36	36	34	34	34	34	34	34	34	34	34	34	34	34	34	34	34	34	38	38	38	38	38	38	38	38	37	37	37	37	43	43	43	43	43	43	43	43	42	42	42	42	43	43	43	43	43	43	43	43	42	42	42	42	43	43	43	43	43	43	43	43	43	43	43	43	45	45	45	45	44	44	44	44	45	45	45	45	43	43	43	43	45	45	45	45	47	47	47	47	63	63	63	63	72	72	72	72	66	66	66	66	67	67	67	67	58	58	58	58	51	51	51	51	45	45	45	45	42	42	42	42	37	37	37	37	38	38	38	38	32	32	32	32	30	30	30	30	30	30	30	30	30	30	30	30	31	31	31	31	30	30	30	30	31	31	31	31	32	32	32	32	33	33	33	33	33	33	33	33	30	30	30	30	32	32	32	32	36	36	36	36	32	32	32	32	32	32	32	32	31	31	31	31	30	30	30	30	32	32	32	32	36	36	36	36	32	32	32	32	33	33	33	33
48	48	48	48	52	52	52	52	52	52	52	52	51	51	51	51	54	54	54	54	49	49	49	49	43	43	43	43	45	45	45	45	53	53	53	53	48	48	48	48	43	43	43	43	45	45	45	45	50	50	50	50	56	56	56	56	58	58	58	58	57	57	57	57	62	62	62	62	57	57	57	57	31	31	31	31	39	39	39	39	39	39	39	39	38	38	38	38	39	39	39	39	37	37	37	37	36	36	36	36	32	32	32	32	34	34	34	34	34	34	34	34	36	36	36	36	36	36	36	36	32	32	32	32	32	32	32	32	32	32	32	32	33	33	33	33	33	33	33	33	33	33	33	33	33	33	33	33	33	33	33	33	32	32	32	32	33	33	33	33	30	30	30	30	30	30	30	30	32	32	32	32	32	32	32	32	34	34	34	34	32	32	32	32	36	36	36	36	34	34	34	34	34	34	34	34	34	34	34	34	34	34	34	34	38	38	38	38	38	38	38	38	37	37	37	37	43	43	43	43	43	43	43	43	42	42	42	42	43	43	43	43	43	43	43	43	42	42	42	42	43	43	43	43	43	43	43	43	43	43	43	43	45	45	45	45	44	44	44	44	45	45	45	45	43	43	43	43	45	45	45	45	47	47	47	47	63	63	63	63	72	72	72	72	66	66	66	66	67	67	67	67	58	58	58	58	51	51	51	51	45	45	45	45	42	42	42	42	37	37	37	37	38	38	38	38	32	32	32	32	30	30	30	30	30	30	30	30	30	30	30	30	31	31	31	31	30	30	30	30	31	31	31	31	32	32	32	32	33	33	33	33	33	33	33	33	30	30	30	30	32	32	32	32	36	36	36	36	32	32	32	32	32	32	32	32	31	31	31	31	30	30	30	30	32	32	32	32	36	36	36	36	32	32	32	32	33	33	33	33
48	48	48	48	52	52	52	52	52	52	52	52	51	51	51	51	54	54	54	54	49	49	49	49	43	43	43	43	45	45	45	45	53	53	53	53	48	48	48	48	43	43	43	43	45	45	45	45	50	50	50	50	56	56	56	56	58	58	58	58	57	57	57	57	62	62	62	62	57	57	57	57	31	31	31	31	39	39	39	39	39	39	39	39	38	38	38	38	39	39	39	39	37	37	37	37	36	36	36	36	32	32	32	32	34	34	34	34	34	34	34	34	36	36	36	36	36	36	36	36	32	32	32	32	32	32	32	32	32	32	32	32	33	33	33	33	33	33	33	33	33	33	33	33	33	33	33	33	33	33	33	33	32	32	32	32	33	33	33	33	30	30	30	30	30	30	30	30	32	32	32	32	32	32	32	32	34	34	34	34	32	32	32	32	36	36	36	36	34	34	34	34	34	34	34	34	34	34	34	34	34	34	34	34	38	38	38	38	38	38	38	38	37	37	37	37	43	43	43	43	43	43	43	43	42	42	42	42	43	43	43	43	43	43	43	43	42	42	42	42	43	43	43	43	43	43	43	43	43	43	43	43	45	45	45	45	44	44	44	44	45	45	45	45	43	43	43	43	45	45	45	45	47	47	47	47	63	63	63	63	72	72	72	72	66	66	66	66	67	67	67	67	58	58	58	58	51	51	51	51	45	45	45	45	42	42	42	42	37	37	37	37	38	38	38	38	32	32	32	32	30	30	30	30	30	30	30	30	30	30	30	30	31	31	31	31	30	30	30	30	31	31	31	31	32	32	32	32	33	33	33	33	33	33	33	33	30	30	30	30	32	32	32	32	36	36	36	36	32	32	32	32	32	32	32	32	31	31	31	31	30	30	30	30	32	32	32	32	36	36	36	36	32	32	32	32	33	33	33	33
45	45	45	45	48	48	48	48	48	48	48	48	48	48	48	48	55	55	55	55	57	57	57	57	47	47	47	47	40	40	40	40	50	50	50	50	52	52	52	52	45	45	45	45	44	44	44	44	46	46	46	46	48	48	48	48	55	55	55	55	55	55	55	55	58	58	58	58	60	60	60	60	27	27	27	27	39	39	39	39	39	39	39	39	39	39	39	39	39	39	39	39	32	32	32	32	30	30	30	30	32	32	32	32	32	32	32	32	32	32	32	32	32	32	32	32	32	32	32	32	36	36	36	36	34	34	34	34	36	36	36	36	32	32	32	32	32	32	32	32	33	33	33	33	33	33	33	33	33	33	33	33	32	32	32	32	33	33	33	33	30	30	30	30	30	30	30	30	33	33	33	33	33	33	33	33	33	33	33	33	32	32	32	32	34	34	34	34	38	38	38	38	38	38	38	38	38	38	38	38	38	38	38	38	38	38	38	38	38	38	38	38	38	38	38	38	38	38	38	38	37	37	37	37	40	40	40	40	42	42	42	42	43	43	43	43	44	44	44	44	42	42	42	42	43	43	43	43	43	43	43	43	44	44	44	44	45	45	45	45	44	44	44	44	43	43	43	43	42	42	42	42	43	43	43	43	50	50	50	50	63	63	63	63	59	59	59	59	61	61	61	61	59	59	59	59	57	57	57	57	47	47	47	47	40	40	40	40	37	37	37	37	38	38	38	38	34	34	34	34	30	30	30	30	30	30	30	30	27	27	27	27	29	29	29	29	31	31	31	31	27	27	27	27	31	31	31	31	33	33	33	33	31	31	31	31	30	30	30	30	30	30	30	30	30	30	30	30	32	32	32	32	36	36	36	36	31	31	31	31	31	31	31	31	30	30	30	30	33	33	33	33	32	32	32	32	32	32	32	32
45	45	45	45	48	48	48	48	48	48	48	48	48	48	48	48	55	55	55	55	57	57	57	57	47	47	47	47	40	40	40	40	50	50	50	50	52	52	52	52	45	45	45	45	44	44	44	44	46	46	46	46	48	48	48	48	55	55	55	55	55	55	55	55	58	58	58	58	60	60	60	60	27	27	27	27	39	39	39	39	39	39	39	39	39	39	39	39	39	39	39	39	32	32	32	32	30	30	30	30	32	32	32	32	32	32	32	32	32	32	32	32	32	32	32	32	32	32	32	32	36	36	36	36	34	34	34	34	36	36	36	36	32	32	32	32	32	32	32	32	33	33	33	33	33	33	33	33	33	33	33	33	32	32	32	32	33	33	33	33	30	30	30	30	30	30	30	30	33	33	33	33	33	33	33	33	33	33	33	33	32	32	32	32	34	34	34	34	38	38	38	38	38	38	38	38	38	38	38	38	38	38	38	38	38	38	38	38	38	38	38	38	38	38	38	38	38	38	38	38	37	37	37	37	40	40	40	40	42	42	42	42	43	43	43	43	44	44	44	44	42	42	42	42	43	43	43	43	43	43	43	43	44	44	44	44	45	45	45	45	44	44	44	44	43	43	43	43	42	42	42	42	43	43	43	43	50	50	50	50	63	63	63	63	59	59	59	59	61	61	61	61	59	59	59	59	57	57	57	57	47	47	47	47	40	40	40	40	37	37	37	37	38	38	38	38	34	34	34	34	30	30	30	30	30	30	30	30	27	27	27	27	29	29	29	29	31	31	31	31	27	27	27	27	31	31	31	31	33	33	33	33	31	31	31	31	30	30	30	30	30	30	30	30	30	30	30	30	32	32	32	32	36	36	36	36	31	31	31	31	31	31	31	31	30	30	30	30	33	33	33	33	32	32	32	32	32	32	32	32
45	45	45	45	48	48	48	48	48	48	48	48	48	48	48	48	55	55	55	55	57	57	57	57	47	47	47	47	40	40	40	40	50	50	50	50	52	52	52	52	45	45	45	45	44	44	44	44	46	46	46	46	48	48	48	48	55	55	55	55	55	55	55	55	58	58	58	58	60	60	60	60	27	27	27	27	39	39	39	39	39	39	39	39	39	39	39	39	39	39	39	39	32	32	32	32	30	30	30	30	32	32	32	32	32	32	32	32	32	32	32	32	32	32	32	32	32	32	32	32	36	36	36	36	34	34	34	34	36	36	36	36	32	32	32	32	32	32	32	32	33	33	33	33	33	33	33	33	33	33	33	33	32	32	32	32	33	33	33	33	30	30	30	30	30	30	30	30	33	33	33	33	33	33	33	33	33	33	33	33	32	32	32	32	34	34	34	34	38	38	38	38	38	38	38	38	38	38	38	38	38	38	38	38	38	38	38	38	38	38	38	38	38	38	38	38	38	38	38	38	37	37	37	37	40	40	40	40	42	42	42	42	43	43	43	43	44	44	44	44	42	42	42	42	43	43	43	43	43	43	43	43	44	44	44	44	45	45	45	45	44	44	44	44	43	43	43	43	42	42	42	42	43	43	43	43	50	50	50	50	63	63	63	63	59	59	59	59	61	61	61	61	59	59	59	59	57	57	57	57	47	47	47	47	40	40	40	40	37	37	37	37	38	38	38	38	34	34	34	34	30	30	30	30	30	30	30	30	27	27	27	27	29	29	29	29	31	31	31	31	27	27	27	27	31	31	31	31	33	33	33	33	31	31	31	31	30	30	30	30	30	30	30	30	30	30	30	30	32	32	32	32	36	36	36	36	31	31	31	31	31	31	31	31	30	30	30	30	33	33	33	33	32	32	32	32	32	32	32	32
45	45	45	45	48	48	48	48	48	48	48	48	48	48	48	48	55	55	55	55	57	57	57	57	47	47	47	47	40	40	40	40	50	50	50	50	52	52	52	52	45	45	45	45	44	44	44	44	46	46	46	46	48	48	48	48	55	55	55	55	55	55	55	55	58	58	58	58	60	60	60	60	27	27	27	27	39	39	39	39	39	39	39	39	39	39	39	39	39	39	39	39	32	32	32	32	30	30	30	30	32	32	32	32	32	32	32	32	32	32	32	32	32	32	32	32	32	32	32	32	36	36	36	36	34	34	34	34	36	36	36	36	32	32	32	32	32	32	32	32	33	33	33	33	33	33	33	33	33	33	33	33	32	32	32	32	33	33	33	33	30	30	30	30	30	30	30	30	33	33	33	33	33	33	33	33	33	33	33	33	32	32	32	32	34	34	34	34	38	38	38	38	38	38	38	38	38	38	38	38	38	38	38	38	38	38	38	38	38	38	38	38	38	38	38	38	38	38	38	38	37	37	37	37	40	40	40	40	42	42	42	42	43	43	43	43	44	44	44	44	42	42	42	42	43	43	43	43	43	43	43	43	44	44	44	44	45	45	45	45	44	44	44	44	43	43	43	43	42	42	42	42	43	43	43	43	50	50	50	50	63	63	63	63	59	59	59	59	61	61	61	61	59	59	59	59	57	57	57	57	47	47	47	47	40	40	40	40	37	37	37	37	38	38	38	38	34	34	34	34	30	30	30	30	30	30	30	30	27	27	27	27	29	29	29	29	31	31	31	31	27	27	27	27	31	31	31	31	33	33	33	33	31	31	31	31	30	30	30	30	30	30	30	30	30	30	30	30	32	32	32	32	36	36	36	36	31	31	31	31	31	31	31	31	30	30	30	30	33	33	33	33	32	32	32	32	32	32	32	32
45	45	45	45	45	45	45	45	45	45	45	45	47	47	47	47	49	49	49	49	58	58	58	58	51	51	51	51	43	43	43	43	40	40	40	40	52	52	52	52	51	51	51	51	44	44	44	44	42	42	42	42	43	43	43	43	47	47	47	47	52	52	52	52	54	54	54	54	57	57	57	57	27	27	27	27	39	39	39	39	39	39	39	39	37	37	37	37	37	37	37	37	33	33	33	33	34	34	34	34	33	33	33	33	32	32	32	32	32	32	32	32	32	32	32	32	33	33	33	33	33	33	33	33	36	36	36	36	34	34	34	34	34	34	34	34	36	36	36	36	32	32	32	32	32	32	32	32	32	32	32	32	32	32	32	32	30	30	30	30	33	33	33	33	30	30	30	30	30	30	30	30	33	33	33	33	32	32	32	32	33	33	33	33	36	36	36	36	38	38	38	38	38	38	38	38	37	37	37	37	39	39	39	39	38	38	38	38	38	38	38	38	38	38	38	38	38	38	38	38	39	39	39	39	40	40	40	40	40	40	40	40	41	41	41	41	43	43	43	43	43	43	43	43	43	43	43	43	43	43	43	43	43	43	43	43	43	43	43	43	43	43	43	43	43	43	43	43	41	41	41	41	40	40	40	40	42	42	42	42	48	48	48	48	52	52	52	52	54	54	54	54	50	50	50	50	54	54	54	54	47	47	47	47	43	43	43	43	37	37	37	37	40	40	40	40	32	32	32	32	32	32	32	32	30	30	30	30	27	27	27	27	31	31	31	31	27	27	27	27	27	27	27	27	31	31	31	31	31	31	31	31	30	30	30	30	27	27	27	27	32	32	32	32	30	30	30	30	30	30	30	30	32	32	32	32	30	30	30	30	30	30	30	30	31	31	31	31	30	30	30	30	30	30	30	30	33	33	33	33
45	45	45	45	45	45	45	45	45	45	45	45	47	47	47	47	49	49	49	49	58	58	58	58	51	51	51	51	43	43	43	43	40	40	40	40	52	52	52	52	51	51	51	51	44	44	44	44	42	42	42	42	43	43	43	43	47	47	47	47	52	52	52	52	54	54	54	54	57	57	57	57	27	27	27	27	39	39	39	39	39	39	39	39	37	37	37	37	37	37	37	37	33	33	33	33	34	34	34	34	33	33	33	33	32	32	32	32	32	32	32	32	32	32	32	32	33	33	33	33	33	33	33	33	36	36	36	36	34	34	34	34	34	34	34	34	36	36	36	36	32	32	32	32	32	32	32	32	32	32	32	32	32	32	32	32	30	30	30	30	33	33	33	33	30	30	30	30	30	30	30	30	33	33	33	33	32	32	32	32	33	33	33	33	36	36	36	36	38	38	38	38	38	38	38	38	37	37	37	37	39	39	39	39	38	38	38	38	38	38	38	38	38	38	38	38	38	38	38	38	39	39	39	39	40	40	40	40	40	40	40	40	41	41	41	41	43	43	43	43	43	43	43	43	43	43	43	43	43	43	43	43	43	43	43	43	43	43	43	43	43	43	43	43	43	43	43	43	41	41	41	41	40	40	40	40	42	42	42	42	48	48	48	48	52	52	52	52	54	54	54	54	50	50	50	50	54	54	54	54	47	47	47	47	43	43	43	43	37	37	37	37	40	40	40	40	32	32	32	32	32	32	32	32	30	30	30	30	27	27	27	27	31	31	31	31	27	27	27	27	27	27	27	27	31	31	31	31	31	31	31	31	30	30	30	30	27	27	27	27	32	32	32	32	30	30	30	30	30	30	30	30	32	32	32	32	30	30	30	30	30	30	30	30	31	31	31	31	30	30	30	30	30	30	30	30	33	33	33	33
45	45	45	45	45	45	45	45	45	45	45	45	47	47	47	47	49	49	49	49	58	58	58	58	51	51	51	51	43	43	43	43	40	40	40	40	52	52	52	52	51	51	51	51	44	44	44	44	42	42	42	42	43	43	43	43	47	47	47	47	52	52	52	52	54	54	54	54	57	57	57	57	27	27	27	27	39	39	39	39	39	39	39	39	37	37	37	37	37	37	37	37	33	33	33	33	34	34	34	34	33	33	33	33	32	32	32	32	32	32	32	32	32	32	32	32	33	33	33	33	33	33	33	33	36	36	36	36	34	34	34	34	34	34	34	34	36	36	36	36	32	32	32	32	32	32	32	32	32	32	32	32	32	32	32	32	30	30	30	30	33	33	33	33	30	30	30	30	30	30	30	30	33	33	33	33	32	32	32	32	33	33	33	33	36	36	36	36	38	38	38	38	38	38	38	38	37	37	37	37	39	39	39	39	38	38	38	38	38	38	38	38	38	38	38	38	38	38	38	38	39	39	39	39	40	40	40	40	40	40	40	40	41	41	41	41	43	43	43	43	43	43	43	43	43	43	43	43	43	43	43	43	43	43	43	43	43	43	43	43	43	43	43	43	43	43	43	43	41	41	41	41	40	40	40	40	42	42	42	42	48	48	48	48	52	52	52	52	54	54	54	54	50	50	50	50	54	54	54	54	47	47	47	47	43	43	43	43	37	37	37	37	40	40	40	40	32	32	32	32	32	32	32	32	30	30	30	30	27	27	27	27	31	31	31	31	27	27	27	27	27	27	27	27	31	31	31	31	31	31	31	31	30	30	30	30	27	27	27	27	32	32	32	32	30	30	30	30	30	30	30	30	32	32	32	32	30	30	30	30	30	30	30	30	31	31	31	31	30	30	30	30	30	30	30	30	33	33	33	33
45	45	45	45	45	45	45	45	45	45	45	45	47	47	47	47	49	49	49	49	58	58	58	58	51	51	51	51	43	43	43	43	40	40	40	40	52	52	52	52	51	51	51	51	44	44	44	44	42	42	42	42	43	43	43	43	47	47	47	47	52	52	52	52	54	54	54	54	57	57	57	57	27	27	27	27	39	39	39	39	39	39	39	39	37	37	37	37	37	37	37	37	33	33	33	33	34	34	34	34	33	33	33	33	32	32	32	32	32	32	32	32	32	32	32	32	33	33	33	33	33	33	33	33	36	36	36	36	34	34	34	34	34	34	34	34	36	36	36	36	32	32	32	32	32	32	32	32	32	32	32	32	32	32	32	32	30	30	30	30	33	33	33	33	30	30	30	30	30	30	30	30	33	33	33	33	32	32	32	32	33	33	33	33	36	36	36	36	38	38	38	38	38	38	38	38	37	37	37	37	39	39	39	39	38	38	38	38	38	38	38	38	38	38	38	38	38	38	38	38	39	39	39	39	40	40	40	40	40	40	40	40	41	41	41	41	43	43	43	43	43	43	43	43	43	43	43	43	43	43	43	43	43	43	43	43	43	43	43	43	43	43	43	43	43	43	43	43	41	41	41	41	40	40	40	40	42	42	42	42	48	48	48	48	52	52	52	52	54	54	54	54	50	50	50	50	54	54	54	54	47	47	47	47	43	43	43	43	37	37	37	37	40	40	40	40	32	32	32	32	32	32	32	32	30	30	30	30	27	27	27	27	31	31	31	31	27	27	27	27	27	27	27	27	31	31	31	31	31	31	31	31	30	30	30	30	27	27	27	27	32	32	32	32	30	30	30	30	30	30	30	30	32	32	32	32	30	30	30	30	30	30	30	30	31	31	31	31	30	30	30	30	30	30	30	30	33	33	33	33
43	43	43	43	43	43	43	43	44	44	44	44	47	47	47	47	48	48	48	48	57	57	57	57	58	58	58	58	50	50	50	50	40	40	40	40	43	43	43	43	55	55	55	55	48	48	48	48	40	40	40	40	40	40	40	40	44	44	44	44	49	49	49	49	49	49	49	49	48	48	48	48	32	32	32	32	39	39	39	39	39	39	39	39	37	37	37	37	38	38	38	38	38	38	38	38	38	38	38	38	30	30	30	30	33	33	33	33	33	33	33	33	33	33	33	33	30	30	30	30	30	30	30	30	33	33	33	33	32	32	32	32	36	36	36	36	36	36	36	36	36	36	36	36	32	32	32	32	32	32	32	32	32	32	32	32	32	32	32	32	33	33	33	33	32	32	32	32	33	33	33	33	32	32	32	32	32	32	32	32	32	32	32	32	32	32	32	32	38	38	38	38	38	38	38	38	38	38	38	38	39	39	39	39	39	39	39	39	39	39	39	39	38	38	38	38	38	38	38	38	38	38	38	38	39	39	39	39	40	40	40	40	40	40	40	40	42	42	42	42	42	42	42	42	44	44	44	44	43	43	43	43	43	43	43	43	40	40	40	40	43	43	43	43	43	43	43	43	42	42	42	42	40	40	40	40	37	37	37	37	40	40	40	40	44	44	44	44	45	45	45	45	46	46	46	46	52	52	52	52	57	57	57	57	51	51	51	51	45	45	45	45	38	38	38	38	32	32	32	32	32	32	32	32	31	31	31	31	31	31	31	31	29	29	29	29	27	27	27	27	21	21	21	21	29	29	29	29	31	31	31	31	29	29	29	29	27	27	27	27	30	30	30	30	31	31	31	31	30	30	30	30	30	30	30	30	30	30	30	30	31	31	31	31	29	29	29	29	27	27	27	27	31	31	31	31	30	30	30	30
43	43	43	43	43	43	43	43	44	44	44	44	47	47	47	47	48	48	48	48	57	57	57	57	58	58	58	58	50	50	50	50	40	40	40	40	43	43	43	43	55	55	55	55	48	48	48	48	40	40	40	40	40	40	40	40	44	44	44	44	49	49	49	49	49	49	49	49	48	48	48	48	32	32	32	32	39	39	39	39	39	39	39	39	37	37	37	37	38	38	38	38	38	38	38	38	38	38	38	38	30	30	30	30	33	33	33	33	33	33	33	33	33	33	33	33	30	30	30	30	30	30	30	30	33	33	33	33	32	32	32	32	36	36	36	36	36	36	36	36	36	36	36	36	32	32	32	32	32	32	32	32	32	32	32	32	32	32	32	32	33	33	33	33	32	32	32	32	33	33	33	33	32	32	32	32	32	32	32	32	32	32	32	32	32	32	32	32	38	38	38	38	38	38	38	38	38	38	38	38	39	39	39	39	39	39	39	39	39	39	39	39	38	38	38	38	38	38	38	38	38	38	38	38	39	39	39	39	40	40	40	40	40	40	40	40	42	42	42	42	42	42	42	42	44	44	44	44	43	43	43	43	43	43	43	43	40	40	40	40	43	43	43	43	43	43	43	43	42	42	42	42	40	40	40	40	37	37	37	37	40	40	40	40	44	44	44	44	45	45	45	45	46	46	46	46	52	52	52	52	57	57	57	57	51	51	51	51	45	45	45	45	38	38	38	38	32	32	32	32	32	32	32	32	31	31	31	31	31	31	31	31	29	29	29	29	27	27	27	27	21	21	21	21	29	29	29	29	31	31	31	31	29	29	29	29	27	27	27	27	30	30	30	30	31	31	31	31	30	30	30	30	30	30	30	30	30	30	30	30	31	31	31	31	29	29	29	29	27	27	27	27	31	31	31	31	30	30	30	30
43	43	43	43	43	43	43	43	44	44	44	44	47	47	47	47	48	48	48	48	57	57	57	57	58	58	58	58	50	50	50	50	40	40	40	40	43	43	43	43	55	55	55	55	48	48	48	48	40	40	40	40	40	40	40	40	44	44	44	44	49	49	49	49	49	49	49	49	48	48	48	48	32	32	32	32	39	39	39	39	39	39	39	39	37	37	37	37	38	38	38	38	38	38	38	38	38	38	38	38	30	30	30	30	33	33	33	33	33	33	33	33	33	33	33	33	30	30	30	30	30	30	30	30	33	33	33	33	32	32	32	32	36	36	36	36	36	36	36	36	36	36	36	36	32	32	32	32	32	32	32	32	32	32	32	32	32	32	32	32	33	33	33	33	32	32	32	32	33	33	33	33	32	32	32	32	32	32	32	32	32	32	32	32	32	32	32	32	38	38	38	38	38	38	38	38	38	38	38	38	39	39	39	39	39	39	39	39	39	39	39	39	38	38	38	38	38	38	38	38	38	38	38	38	39	39	39	39	40	40	40	40	40	40	40	40	42	42	42	42	42	42	42	42	44	44	44	44	43	43	43	43	43	43	43	43	40	40	40	40	43	43	43	43	43	43	43	43	42	42	42	42	40	40	40	40	37	37	37	37	40	40	40	40	44	44	44	44	45	45	45	45	46	46	46	46	52	52	52	52	57	57	57	57	51	51	51	51	45	45	45	45	38	38	38	38	32	32	32	32	32	32	32	32	31	31	31	31	31	31	31	31	29	29	29	29	27	27	27	27	21	21	21	21	29	29	29	29	31	31	31	31	29	29	29	29	27	27	27	27	30	30	30	30	31	31	31	31	30	30	30	30	30	30	30	30	30	30	30	30	31	31	31	31	29	29	29	29	27	27	27	27	31	31	31	31	30	30	30	30
43	43	43	43	43	43	43	43	44	44	44	44	47	47	47	47	48	48	48	48	57	57	57	57	58	58	58	58	50	50	50	50	40	40	40	40	43	43	43	43	55	55	55	55	48	48	48	48	40	40	40	40	40	40	40	40	44	44	44	44	49	49	49	49	49	49	49	49	48	48	48	48	32	32	32	32	39	39	39	39	39	39	39	39	37	37	37	37	38	38	38	38	38	38	38	38	38	38	38	38	30	30	30	30	33	33	33	33	33	33	33	33	33	33	33	33	30	30	30	30	30	30	30	30	33	33	33	33	32	32	32	32	36	36	36	36	36	36	36	36	36	36	36	36	32	32	32	32	32	32	32	32	32	32	32	32	32	32	32	32	33	33	33	33	32	32	32	32	33	33	33	33	32	32	32	32	32	32	32	32	32	32	32	32	32	32	32	32	38	38	38	38	38	38	38	38	38	38	38	38	39	39	39	39	39	39	39	39	39	39	39	39	38	38	38	38	38	38	38	38	38	38	38	38	39	39	39	39	40	40	40	40	40	40	40	40	42	42	42	42	42	42	42	42	44	44	44	44	43	43	43	43	43	43	43	43	40	40	40	40	43	43	43	43	43	43	43	43	42	42	42	42	40	40	40	40	37	37	37	37	40	40	40	40	44	44	44	44	45	45	45	45	46	46	46	46	52	52	52	52	57	57	57	57	51	51	51	51	45	45	45	45	38	38	38	38	32	32	32	32	32	32	32	32	31	31	31	31	31	31	31	31	29	29	29	29	27	27	27	27	21	21	21	21	29	29	29	29	31	31	31	31	29	29	29	29	27	27	27	27	30	30	30	30	31	31	31	31	30	30	30	30	30	30	30	30	30	30	30	30	31	31	31	31	29	29	29	29	27	27	27	27	31	31	31	31	30	30	30	30
43	43	43	43	43	43	43	43	44	44	44	44	46	46	46	46	48	48	48	48	57	57	57	57	59	59	59	59	56	56	56	56	46	46	46	46	40	40	40	40	47	47	47	47	52	52	52	52	43	43	43	43	37	37	37	37	43	43	43	43	45	45	45	45	48	48	48	48	37	37	37	37	38	38	38	38	39	39	39	39	37	37	37	37	37	37	37	37	38	38	38	38	38	38	38	38	38	38	38	38	33	33	33	33	33	33	33	33	33	33	33	33	30	30	30	30	30	30	30	30	30	30	30	30	30	30	30	30	30	30	30	30	32	32	32	32	32	32	32	32	32	32	32	32	32	32	32	32	32	32	32	32	32	32	32	32	32	32	32	32	32	32	32	32	32	32	32	32	32	32	32	32	32	32	32	32	32	32	32	32	32	32	32	32	32	32	32	32	36	36	36	36	38	38	38	38	38	38	38	38	38	38	38	38	38	38	38	38	38	38	38	38	38	38	38	38	38	38	38	38	39	39	39	39	37	37	37	37	40	40	40	40	40	40	40	40	41	41	41	41	42	42	42	42	43	43	43	43	43	43	43	43	41	41	41	41	40	40	40	40	42	42	42	42	42	42	42	42	43	43	43	43	40	40	40	40	40	40	40	40	39	39	39	39	37	37	37	37	40	40	40	40	43	43	43	43	46	46	46	46	55	55	55	55	55	55	55	55	47	47	47	47	41	41	41	41	34	34	34	34	32	32	32	32	31	31	31	31	27	27	27	27	31	31	31	31	28	28	28	28	27	27	27	27	27	27	27	27	27	27	27	27	31	31	31	31	31	31	31	31	30	30	30	30	31	31	31	31	30	30	30	30	30	30	30	30	30	30	30	30	30	30	30	30	31	31	31	31	31	31	31	31	31	31	31	31	31	31	31	31
43	43	43	43	43	43	43	43	44	44	44	44	46	46	46	46	48	48	48	48	57	57	57	57	59	59	59	59	56	56	56	56	46	46	46	46	40	40	40	40	47	47	47	47	52	52	52	52	43	43	43	43	37	37	37	37	43	43	43	43	45	45	45	45	48	48	48	48	37	37	37	37	38	38	38	38	39	39	39	39	37	37	37	37	37	37	37	37	38	38	38	38	38	38	38	38	38	38	38	38	33	33	33	33	33	33	33	33	33	33	33	33	30	30	30	30	30	30	30	30	30	30	30	30	30	30	30	30	30	30	30	30	32	32	32	32	32	32	32	32	32	32	32	32	32	32	32	32	32	32	32	32	32	32	32	32	32	32	32	32	32	32	32	32	32	32	32	32	32	32	32	32	32	32	32	32	32	32	32	32	32	32	32	32	32	32	32	32	36	36	36	36	38	38	38	38	38	38	38	38	38	38	38	38	38	38	38	38	38	38	38	38	38	38	38	38	38	38	38	38	39	39	39	39	37	37	37	37	40	40	40	40	40	40	40	40	41	41	41	41	42	42	42	42	43	43	43	43	43	43	43	43	41	41	41	41	40	40	40	40	42	42	42	42	42	42	42	42	43	43	43	43	40	40	40	40	40	40	40	40	39	39	39	39	37	37	37	37	40	40	40	40	43	43	43	43	46	46	46	46	55	55	55	55	55	55	55	55	47	47	47	47	41	41	41	41	34	34	34	34	32	32	32	32	31	31	31	31	27	27	27	27	31	31	31	31	28	28	28	28	27	27	27	27	27	27	27	27	27	27	27	27	31	31	31	31	31	31	31	31	30	30	30	30	31	31	31	31	30	30	30	30	30	30	30	30	30	30	30	30	30	30	30	30	31	31	31	31	31	31	31	31	31	31	31	31	31	31	31	31
43	43	43	43	43	43	43	43	44	44	44	44	46	46	46	46	48	48	48	48	57	57	57	57	59	59	59	59	56	56	56	56	46	46	46	46	40	40	40	40	47	47	47	47	52	52	52	52	43	43	43	43	37	37	37	37	43	43	43	43	45	45	45	45	48	48	48	48	37	37	37	37	38	38	38	38	39	39	39	39	37	37	37	37	37	37	37	37	38	38	38	38	38	38	38	38	38	38	38	38	33	33	33	33	33	33	33	33	33	33	33	33	30	30	30	30	30	30	30	30	30	30	30	30	30	30	30	30	30	30	30	30	32	32	32	32	32	32	32	32	32	32	32	32	32	32	32	32	32	32	32	32	32	32	32	32	32	32	32	32	32	32	32	32	32	32	32	32	32	32	32	32	32	32	32	32	32	32	32	32	32	32	32	32	32	32	32	32	36	36	36	36	38	38	38	38	38	38	38	38	38	38	38	38	38	38	38	38	38	38	38	38	38	38	38	38	38	38	38	38	39	39	39	39	37	37	37	37	40	40	40	40	40	40	40	40	41	41	41	41	42	42	42	42	43	43	43	43	43	43	43	43	41	41	41	41	40	40	40	40	42	42	42	42	42	42	42	42	43	43	43	43	40	40	40	40	40	40	40	40	39	39	39	39	37	37	37	37	40	40	40	40	43	43	43	43	46	46	46	46	55	55	55	55	55	55	55	55	47	47	47	47	41	41	41	41	34	34	34	34	32	32	32	32	31	31	31	31	27	27	27	27	31	31	31	31	28	28	28	28	27	27	27	27	27	27	27	27	27	27	27	27	31	31	31	31	31	31	31	31	30	30	30	30	31	31	31	31	30	30	30	30	30	30	30	30	30	30	30	30	30	30	30	30	31	31	31	31	31	31	31	31	31	31	31	31	31	31	31	31
43	43	43	43	43	43	43	43	44	44	44	44	46	46	46	46	48	48	48	48	57	57	57	57	59	59	59	59	56	56	56	56	46	46	46	46	40	40	40	40	47	47	47	47	52	52	52	52	43	43	43	43	37	37	37	37	43	43	43	43	45	45	45	45	48	48	48	48	37	37	37	37	38	38	38	38	39	39	39	39	37	37	37	37	37	37	37	37	38	38	38	38	38	38	38	38	38	38	38	38	33	33	33	33	33	33	33	33	33	33	33	33	30	30	30	30	30	30	30	30	30	30	30	30	30	30	30	30	30	30	30	30	32	32	32	32	32	32	32	32	32	32	32	32	32	32	32	32	32	32	32	32	32	32	32	32	32	32	32	32	32	32	32	32	32	32	32	32	32	32	32	32	32	32	32	32	32	32	32	32	32	32	32	32	32	32	32	32	36	36	36	36	38	38	38	38	38	38	38	38	38	38	38	38	38	38	38	38	38	38	38	38	38	38	38	38	38	38	38	38	39	39	39	39	37	37	37	37	40	40	40	40	40	40	40	40	41	41	41	41	42	42	42	42	43	43	43	43	43	43	43	43	41	41	41	41	40	40	40	40	42	42	42	42	42	42	42	42	43	43	43	43	40	40	40	40	40	40	40	40	39	39	39	39	37	37	37	37	40	40	40	40	43	43	43	43	46	46	46	46	55	55	55	55	55	55	55	55	47	47	47	47	41	41	41	41	34	34	34	34	32	32	32	32	31	31	31	31	27	27	27	27	31	31	31	31	28	28	28	28	27	27	27	27	27	27	27	27	27	27	27	27	31	31	31	31	31	31	31	31	30	30	30	30	31	31	31	31	30	30	30	30	30	30	30	30	30	30	30	30	30	30	30	30	31	31	31	31	31	31	31	31	31	31	31	31	31	31	31	31
43	43	43	43	43	43	43	43	44	44	44	44	45	45	45	45	48	48	48	48	55	55	55	55	57	57	57	57	60	60	60	60	49	49	49	49	41	41	41	41	43	43	43	43	48	48	48	48	48	48	48	48	40	40	40	40	43	43	43	43	43	43	43	43	37	37	37	37	23	23	23	23	38	38	38	38	38	38	38	38	39	39	39	39	39	39	39	39	31	31	31	31	37	37	37	37	38	38	38	38	32	32	32	32	32	32	32	32	32	32	32	32	32	32	32	32	32	32	32	32	33	33	33	33	33	33	33	33	33	33	33	33	33	33	33	33	33	33	33	33	32	32	32	32	32	32	32	32	32	32	32	32	32	32	32	32	33	33	33	33	32	32	32	32	32	32	32	32	32	32	32	32	32	32	32	32	32	32	32	32	33	33	33	33	33	33	33	33	32	32	32	32	34	34	34	34	38	38	38	38	38	38	38	38	38	38	38	38	38	38	38	38	38	38	38	38	38	38	38	38	38	38	38	38	39	39	39	39	37	37	37	37	40	40	40	40	40	40	40	40	41	41	41	41	42	42	42	42	43	43	43	43	42	42	42	42	41	41	41	41	42	42	42	42	42	42	42	42	42	42	42	42	40	40	40	40	40	40	40	40	37	37	37	37	39	39	39	39	38	38	38	38	40	40	40	40	45	45	45	45	57	57	57	57	55	55	55	55	45	45	45	45	40	40	40	40	38	38	38	38	32	32	32	32	31	31	31	31	27	27	27	27	27	27	27	27	28	28	28	28	25	25	25	25	25	25	25	25	31	31	31	31	31	31	31	31	27	27	27	27	27	27	27	27	31	31	31	31	31	31	31	31	30	30	30	30	33	33	33	33	30	30	30	30	31	31	31	31	31	31	31	31	31	31	31	31	31	31	31	31
43	43	43	43	43	43	43	43	44	44	44	44	45	45	45	45	48	48	48	48	55	55	55	55	57	57	57	57	60	60	60	60	49	49	49	49	41	41	41	41	43	43	43	43	48	48	48	48	48	48	48	48	40	40	40	40	43	43	43	43	43	43	43	43	37	37	37	37	23	23	23	23	38	38	38	38	38	38	38	38	39	39	39	39	39	39	39	39	31	31	31	31	37	37	37	37	38	38	38	38	32	32	32	32	32	32	32	32	32	32	32	32	32	32	32	32	32	32	32	32	33	33	33	33	33	33	33	33	33	33	33	33	33	33	33	33	33	33	33	33	32	32	32	32	32	32	32	32	32	32	32	32	32	32	32	32	33	33	33	33	32	32	32	32	32	32	32	32	32	32	32	32	32	32	32	32	32	32	32	32	33	33	33	33	33	33	33	33	32	32	32	32	34	34	34	34	38	38	38	38	38	38	38	38	38	38	38	38	38	38	38	38	38	38	38	38	38	38	38	38	38	38	38	38	39	39	39	39	37	37	37	37	40	40	40	40	40	40	40	40	41	41	41	41	42	42	42	42	43	43	43	43	42	42	42	42	41	41	41	41	42	42	42	42	42	42	42	42	42	42	42	42	40	40	40	40	40	40	40	40	37	37	37	37	39	39	39	39	38	38	38	38	40	40	40	40	45	45	45	45	57	57	57	57	55	55	55	55	45	45	45	45	40	40	40	40	38	38	38	38	32	32	32	32	31	31	31	31	27	27	27	27	27	27	27	27	28	28	28	28	25	25	25	25	25	25	25	25	31	31	31	31	31	31	31	31	27	27	27	27	27	27	27	27	31	31	31	31	31	31	31	31	30	30	30	30	33	33	33	33	30	30	30	30	31	31	31	31	31	31	31	31	31	31	31	31	31	31	31	31
43	43	43	43	43	43	43	43	44	44	44	44	45	45	45	45	48	48	48	48	55	55	55	55	57	57	57	57	60	60	60	60	49	49	49	49	41	41	41	41	43	43	43	43	48	48	48	48	48	48	48	48	40	40	40	40	43	43	43	43	43	43	43	43	37	37	37	37	23	23	23	23	38	38	38	38	38	38	38	38	39	39	39	39	39	39	39	39	31	31	31	31	37	37	37	37	38	38	38	38	32	32	32	32	32	32	32	32	32	32	32	32	32	32	32	32	32	32	32	32	33	33	33	33	33	33	33	33	33	33	33	33	33	33	33	33	33	33	33	33	32	32	32	32	32	32	32	32	32	32	32	32	32	32	32	32	33	33	33	33	32	32	32	32	32	32	32	32	32	32	32	32	32	32	32	32	32	32	32	32	33	33	33	33	33	33	33	33	32	32	32	32	34	34	34	34	38	38	38	38	38	38	38	38	38	38	38	38	38	38	38	38	38	38	38	38	38	38	38	38	38	38	38	38	39	39	39	39	37	37	37	37	40	40	40	40	40	40	40	40	41	41	41	41	42	42	42	42	43	43	43	43	42	42	42	42	41	41	41	41	42	42	42	42	42	42	42	42	42	42	42	42	40	40	40	40	40	40	40	40	37	37	37	37	39	39	39	39	38	38	38	38	40	40	40	40	45	45	45	45	57	57	57	57	55	55	55	55	45	45	45	45	40	40	40	40	38	38	38	38	32	32	32	32	31	31	31	31	27	27	27	27	27	27	27	27	28	28	28	28	25	25	25	25	25	25	25	25	31	31	31	31	31	31	31	31	27	27	27	27	27	27	27	27	31	31	31	31	31	31	31	31	30	30	30	30	33	33	33	33	30	30	30	30	31	31	31	31	31	31	31	31	31	31	31	31	31	31	31	31
43	43	43	43	43	43	43	43	44	44	44	44	45	45	45	45	48	48	48	48	55	55	55	55	57	57	57	57	60	60	60	60	49	49	49	49	41	41	41	41	43	43	43	43	48	48	48	48	48	48	48	48	40	40	40	40	43	43	43	43	43	43	43	43	37	37	37	37	23	23	23	23	38	38	38	38	38	38	38	38	39	39	39	39	39	39	39	39	31	31	31	31	37	37	37	37	38	38	38	38	32	32	32	32	32	32	32	32	32	32	32	32	32	32	32	32	32	32	32	32	33	33	33	33	33	33	33	33	33	33	33	33	33	33	33	33	33	33	33	33	32	32	32	32	32	32	32	32	32	32	32	32	32	32	32	32	33	33	33	33	32	32	32	32	32	32	32	32	32	32	32	32	32	32	32	32	32	32	32	32	33	33	33	33	33	33	33	33	32	32	32	32	34	34	34	34	38	38	38	38	38	38	38	38	38	38	38	38	38	38	38	38	38	38	38	38	38	38	38	38	38	38	38	38	39	39	39	39	37	37	37	37	40	40	40	40	40	40	40	40	41	41	41	41	42	42	42	42	43	43	43	43	42	42	42	42	41	41	41	41	42	42	42	42	42	42	42	42	42	42	42	42	40	40	40	40	40	40	40	40	37	37	37	37	39	39	39	39	38	38	38	38	40	40	40	40	45	45	45	45	57	57	57	57	55	55	55	55	45	45	45	45	40	40	40	40	38	38	38	38	32	32	32	32	31	31	31	31	27	27	27	27	27	27	27	27	28	28	28	28	25	25	25	25	25	25	25	25	31	31	31	31	31	31	31	31	27	27	27	27	27	27	27	27	31	31	31	31	31	31	31	31	30	30	30	30	33	33	33	33	30	30	30	30	31	31	31	31	31	31	31	31	31	31	31	31	31	31	31	31
46	46	46	46	46	46	46	46	45	45	45	45	45	45	45	45	48	48	48	48	52	52	52	52	53	53	53	53	58	58	58	58	58	58	58	58	47	47	47	47	39	39	39	39	39	39	39	39	50	50	50	50	40	40	40	40	39	39	39	39	38	38	38	38	38	38	38	38	29	29	29	29	38	38	38	38	39	39	39	39	37	37	37	37	37	37	37	37	27	27	27	27	39	39	39	39	38	38	38	38	32	32	32	32	32	32	32	32	32	32	32	32	32	32	32	32	32	32	32	32	32	32	32	32	32	32	32	32	32	32	32	32	32	32	32	32	33	33	33	33	33	33	33	33	33	33	33	33	33	33	33	33	32	32	32	32	33	33	33	33	32	32	32	32	32	32	32	32	32	32	32	32	32	32	32	32	32	32	32	32	32	32	32	32	32	32	32	32	32	32	32	32	36	36	36	36	34	34	34	34	34	34	34	34	34	34	34	34	34	34	34	34	38	38	38	38	38	38	38	38	39	39	39	39	40	40	40	40	40	40	40	40	40	40	40	40	40	40	40	40	42	42	42	42	42	42	42	42	42	42	42	42	42	42	42	42	42	42	42	42	41	41	41	41	42	42	42	42	41	41	41	41	40	40	40	40	40	40	40	40	37	37	37	37	39	39	39	39	38	38	38	38	38	38	38	38	40	40	40	40	54	54	54	54	52	52	52	52	44	44	44	44	40	40	40	40	39	39	39	39	36	36	36	36	31	31	31	31	27	27	27	27	29	29	29	29	25	25	25	25	28	28	28	28	28	28	28	28	29	29	29	29	27	27	27	27	29	29	29	29	27	27	27	27	27	27	27	27	31	31	31	31	27	27	27	27	31	31	31	31	30	30	30	30	30	30	30	30	31	31	31	31	31	31	31	31	31	31	31	31
46	46	46	46	46	46	46	46	45	45	45	45	45	45	45	45	48	48	48	48	52	52	52	52	53	53	53	53	58	58	58	58	58	58	58	58	47	47	47	47	39	39	39	39	39	39	39	39	50	50	50	50	40	40	40	40	39	39	39	39	38	38	38	38	38	38	38	38	29	29	29	29	38	38	38	38	39	39	39	39	37	37	37	37	37	37	37	37	27	27	27	27	39	39	39	39	38	38	38	38	32	32	32	32	32	32	32	32	32	32	32	32	32	32	32	32	32	32	32	32	32	32	32	32	32	32	32	32	32	32	32	32	32	32	32	32	33	33	33	33	33	33	33	33	33	33	33	33	33	33	33	33	32	32	32	32	33	33	33	33	32	32	32	32	32	32	32	32	32	32	32	32	32	32	32	32	32	32	32	32	32	32	32	32	32	32	32	32	32	32	32	32	36	36	36	36	34	34	34	34	34	34	34	34	34	34	34	34	34	34	34	34	38	38	38	38	38	38	38	38	39	39	39	39	40	40	40	40	40	40	40	40	40	40	40	40	40	40	40	40	42	42	42	42	42	42	42	42	42	42	42	42	42	42	42	42	42	42	42	42	41	41	41	41	42	42	42	42	41	41	41	41	40	40	40	40	40	40	40	40	37	37	37	37	39	39	39	39	38	38	38	38	38	38	38	38	40	40	40	40	54	54	54	54	52	52	52	52	44	44	44	44	40	40	40	40	39	39	39	39	36	36	36	36	31	31	31	31	27	27	27	27	29	29	29	29	25	25	25	25	28	28	28	28	28	28	28	28	29	29	29	29	27	27	27	27	29	29	29	29	27	27	27	27	27	27	27	27	31	31	31	31	27	27	27	27	31	31	31	31	30	30	30	30	30	30	30	30	31	31	31	31	31	31	31	31	31	31	31	31
46	46	46	46	46	46	46	46	45	45	45	45	45	45	45	45	48	48	48	48	52	52	52	52	53	53	53	53	58	58	58	58	58	58	58	58	47	47	47	47	39	39	39	39	39	39	39	39	50	50	50	50	40	40	40	40	39	39	39	39	38	38	38	38	38	38	38	38	29	29	29	29	38	38	38	38	39	39	39	39	37	37	37	37	37	37	37	37	27	27	27	27	39	39	39	39	38	38	38	38	32	32	32	32	32	32	32	32	32	32	32	32	32	32	32	32	32	32	32	32	32	32	32	32	32	32	32	32	32	32	32	32	32	32	32	32	33	33	33	33	33	33	33	33	33	33	33	33	33	33	33	33	32	32	32	32	33	33	33	33	32	32	32	32	32	32	32	32	32	32	32	32	32	32	32	32	32	32	32	32	32	32	32	32	32	32	32	32	32	32	32	32	36	36	36	36	34	34	34	34	34	34	34	34	34	34	34	34	34	34	34	34	38	38	38	38	38	38	38	38	39	39	39	39	40	40	40	40	40	40	40	40	40	40	40	40	40	40	40	40	42	42	42	42	42	42	42	42	42	42	42	42	42	42	42	42	42	42	42	42	41	41	41	41	42	42	42	42	41	41	41	41	40	40	40	40	40	40	40	40	37	37	37	37	39	39	39	39	38	38	38	38	38	38	38	38	40	40	40	40	54	54	54	54	52	52	52	52	44	44	44	44	40	40	40	40	39	39	39	39	36	36	36	36	31	31	31	31	27	27	27	27	29	29	29	29	25	25	25	25	28	28	28	28	28	28	28	28	29	29	29	29	27	27	27	27	29	29	29	29	27	27	27	27	27	27	27	27	31	31	31	31	27	27	27	27	31	31	31	31	30	30	30	30	30	30	30	30	31	31	31	31	31	31	31	31	31	31	31	31
46	46	46	46	46	46	46	46	45	45	45	45	45	45	45	45	48	48	48	48	52	52	52	52	53	53	53	53	58	58	58	58	58	58	58	58	47	47	47	47	39	39	39	39	39	39	39	39	50	50	50	50	40	40	40	40	39	39	39	39	38	38	38	38	38	38	38	38	29	29	29	29	38	38	38	38	39	39	39	39	37	37	37	37	37	37	37	37	27	27	27	27	39	39	39	39	38	38	38	38	32	32	32	32	32	32	32	32	32	32	32	32	32	32	32	32	32	32	32	32	32	32	32	32	32	32	32	32	32	32	32	32	32	32	32	32	33	33	33	33	33	33	33	33	33	33	33	33	33	33	33	33	32	32	32	32	33	33	33	33	32	32	32	32	32	32	32	32	32	32	32	32	32	32	32	32	32	32	32	32	32	32	32	32	32	32	32	32	32	32	32	32	36	36	36	36	34	34	34	34	34	34	34	34	34	34	34	34	34	34	34	34	38	38	38	38	38	38	38	38	39	39	39	39	40	40	40	40	40	40	40	40	40	40	40	40	40	40	40	40	42	42	42	42	42	42	42	42	42	42	42	42	42	42	42	42	42	42	42	42	41	41	41	41	42	42	42	42	41	41	41	41	40	40	40	40	40	40	40	40	37	37	37	37	39	39	39	39	38	38	38	38	38	38	38	38	40	40	40	40	54	54	54	54	52	52	52	52	44	44	44	44	40	40	40	40	39	39	39	39	36	36	36	36	31	31	31	31	27	27	27	27	29	29	29	29	25	25	25	25	28	28	28	28	28	28	28	28	29	29	29	29	27	27	27	27	29	29	29	29	27	27	27	27	27	27	27	27	31	31	31	31	27	27	27	27	31	31	31	31	30	30	30	30	30	30	30	30	31	31	31	31	31	31	31	31	31	31	31	31
49	49	49	49	52	52	52	52	50	50	50	50	47	47	47	47	50	50	50	50	54	54	54	54	54	54	54	54	52	52	52	52	55	55	55	55	50	50	50	50	45	45	45	45	39	39	39	39	40	40	40	40	37	37	37	37	38	38	38	38	38	38	38	38	38	38	38	38	27	27	27	27	39	39	39	39	37	37	37	37	37	37	37	37	34	34	34	34	38	38	38	38	39	39	39	39	36	36	36	36	30	30	30	30	30	30	30	30	30	30	30	30	33	33	33	33	32	32	32	32	32	32	32	32	36	36	36	36	36	36	36	36	36	36	36	36	32	32	32	32	32	32	32	32	32	32	32	32	32	32	32	32	32	32	32	32	32	32	32	32	32	32	32	32	32	32	32	32	32	32	32	32	32	32	32	32	32	32	32	32	30	30	30	30	32	32	32	32	32	32	32	32	36	36	36	36	36	36	36	36	34	34	34	34	34	34	34	34	38	38	38	38	39	39	39	39	37	37	37	37	37	37	37	37	41	41	41	41	41	41	41	41	40	40	40	40	40	40	40	40	40	40	40	40	41	41	41	41	43	43	43	43	43	43	43	43	43	43	43	43	43	43	43	43	41	41	41	41	41	41	41	41	37	37	37	37	37	37	37	37	37	37	37	37	37	37	37	37	38	38	38	38	38	38	38	38	38	38	38	38	43	43	43	43	49	49	49	49	42	42	42	42	39	39	39	39	38	38	38	38	32	32	32	32	27	27	27	27	27	27	27	27	28	28	28	28	28	28	28	28	28	28	28	28	29	29	29	29	27	27	27	27	28	28	28	28	28	28	28	28	28	28	28	28	27	27	27	27	27	27	27	27	27	27	27	27	31	31	31	31	31	31	31	31	30	30	30	30	31	31	31	31	31	31	31	31	31	31	31	31
49	49	49	49	52	52	52	52	50	50	50	50	47	47	47	47	50	50	50	50	54	54	54	54	54	54	54	54	52	52	52	52	55	55	55	55	50	50	50	50	45	45	45	45	39	39	39	39	40	40	40	40	37	37	37	37	38	38	38	38	38	38	38	38	38	38	38	38	27	27	27	27	39	39	39	39	37	37	37	37	37	37	37	37	34	34	34	34	38	38	38	38	39	39	39	39	36	36	36	36	30	30	30	30	30	30	30	30	30	30	30	30	33	33	33	33	32	32	32	32	32	32	32	32	36	36	36	36	36	36	36	36	36	36	36	36	32	32	32	32	32	32	32	32	32	32	32	32	32	32	32	32	32	32	32	32	32	32	32	32	32	32	32	32	32	32	32	32	32	32	32	32	32	32	32	32	32	32	32	32	30	30	30	30	32	32	32	32	32	32	32	32	36	36	36	36	36	36	36	36	34	34	34	34	34	34	34	34	38	38	38	38	39	39	39	39	37	37	37	37	37	37	37	37	41	41	41	41	41	41	41	41	40	40	40	40	40	40	40	40	40	40	40	40	41	41	41	41	43	43	43	43	43	43	43	43	43	43	43	43	43	43	43	43	41	41	41	41	41	41	41	41	37	37	37	37	37	37	37	37	37	37	37	37	37	37	37	37	38	38	38	38	38	38	38	38	38	38	38	38	43	43	43	43	49	49	49	49	42	42	42	42	39	39	39	39	38	38	38	38	32	32	32	32	27	27	27	27	27	27	27	27	28	28	28	28	28	28	28	28	28	28	28	28	29	29	29	29	27	27	27	27	28	28	28	28	28	28	28	28	28	28	28	28	27	27	27	27	27	27	27	27	27	27	27	27	31	31	31	31	31	31	31	31	30	30	30	30	31	31	31	31	31	31	31	31	31	31	31	31
49	49	49	49	52	52	52	52	50	50	50	50	47	47	47	47	50	50	50	50	54	54	54	54	54	54	54	54	52	52	52	52	55	55	55	55	50	50	50	50	45	45	45	45	39	39	39	39	40	40	40	40	37	37	37	37	38	38	38	38	38	38	38	38	38	38	38	38	27	27	27	27	39	39	39	39	37	37	37	37	37	37	37	37	34	34	34	34	38	38	38	38	39	39	39	39	36	36	36	36	30	30	30	30	30	30	30	30	30	30	30	30	33	33	33	33	32	32	32	32	32	32	32	32	36	36	36	36	36	36	36	36	36	36	36	36	32	32	32	32	32	32	32	32	32	32	32	32	32	32	32	32	32	32	32	32	32	32	32	32	32	32	32	32	32	32	32	32	32	32	32	32	32	32	32	32	32	32	32	32	30	30	30	30	32	32	32	32	32	32	32	32	36	36	36	36	36	36	36	36	34	34	34	34	34	34	34	34	38	38	38	38	39	39	39	39	37	37	37	37	37	37	37	37	41	41	41	41	41	41	41	41	40	40	40	40	40	40	40	40	40	40	40	40	41	41	41	41	43	43	43	43	43	43	43	43	43	43	43	43	43	43	43	43	41	41	41	41	41	41	41	41	37	37	37	37	37	37	37	37	37	37	37	37	37	37	37	37	38	38	38	38	38	38	38	38	38	38	38	38	43	43	43	43	49	49	49	49	42	42	42	42	39	39	39	39	38	38	38	38	32	32	32	32	27	27	27	27	27	27	27	27	28	28	28	28	28	28	28	28	28	28	28	28	29	29	29	29	27	27	27	27	28	28	28	28	28	28	28	28	28	28	28	28	27	27	27	27	27	27	27	27	27	27	27	27	31	31	31	31	31	31	31	31	30	30	30	30	31	31	31	31	31	31	31	31	31	31	31	31
49	49	49	49	52	52	52	52	50	50	50	50	47	47	47	47	50	50	50	50	54	54	54	54	54	54	54	54	52	52	52	52	55	55	55	55	50	50	50	50	45	45	45	45	39	39	39	39	40	40	40	40	37	37	37	37	38	38	38	38	38	38	38	38	38	38	38	38	27	27	27	27	39	39	39	39	37	37	37	37	37	37	37	37	34	34	34	34	38	38	38	38	39	39	39	39	36	36	36	36	30	30	30	30	30	30	30	30	30	30	30	30	33	33	33	33	32	32	32	32	32	32	32	32	36	36	36	36	36	36	36	36	36	36	36	36	32	32	32	32	32	32	32	32	32	32	32	32	32	32	32	32	32	32	32	32	32	32	32	32	32	32	32	32	32	32	32	32	32	32	32	32	32	32	32	32	32	32	32	32	30	30	30	30	32	32	32	32	32	32	32	32	36	36	36	36	36	36	36	36	34	34	34	34	34	34	34	34	38	38	38	38	39	39	39	39	37	37	37	37	37	37	37	37	41	41	41	41	41	41	41	41	40	40	40	40	40	40	40	40	40	40	40	40	41	41	41	41	43	43	43	43	43	43	43	43	43	43	43	43	43	43	43	43	41	41	41	41	41	41	41	41	37	37	37	37	37	37	37	37	37	37	37	37	37	37	37	37	38	38	38	38	38	38	38	38	38	38	38	38	43	43	43	43	49	49	49	49	42	42	42	42	39	39	39	39	38	38	38	38	32	32	32	32	27	27	27	27	27	27	27	27	28	28	28	28	28	28	28	28	28	28	28	28	29	29	29	29	27	27	27	27	28	28	28	28	28	28	28	28	28	28	28	28	27	27	27	27	27	27	27	27	27	27	27	27	31	31	31	31	31	31	31	31	30	30	30	30	31	31	31	31	31	31	31	31	31	31	31	31
57	57	57	57	57	57	57	57	57	57	57	57	51	51	51	51	50	50	50	50	50	50	50	50	51	51	51	51	51	51	51	51	55	55	55	55	50	50	50	50	46	46	46	46	39	39	39	39	38	38	38	38	38	38	38	38	38	38	38	38	38	38	38	38	29	29	29	29	38	38	38	38	39	39	39	39	37	37	37	37	37	37	37	37	27	27	27	27	37	37	37	37	40	40	40	40	36	36	36	36	31	31	31	31	31	31	31	31	31	31	31	31	31	31	31	31	31	31	31	31	31	31	31	31	30	30	30	30	30	30	30	30	32	32	32	32	32	32	32	32	36	36	36	36	36	36	36	36	36	36	36	36	36	36	36	36	36	36	36	36	32	32	32	32	32	32	32	32	32	32	32	32	32	32	32	32	32	32	32	32	30	30	30	30	33	33	33	33	32	32	32	32	36	36	36	36	34	34	34	34	38	38	38	38	38	38	38	38	38	38	38	38	39	39	39	39	40	40	40	40	40	40	40	40	41	41	41	41	41	41	41	41	37	37	37	37	39	39	39	39	40	40	40	40	40	40	40	40	41	41	41	41	42	42	42	42	37	37	37	37	43	43	43	43	41	41	41	41	41	41	41	41	37	37	37	37	40	40	40	40	37	37	37	37	37	37	37	37	38	38	38	38	38	38	38	38	34	34	34	34	38	38	38	38	43	43	43	43	41	41	41	41	39	39	39	39	34	34	34	34	30	30	30	30	31	31	31	31	27	27	27	27	27	27	27	27	28	28	28	28	29	29	29	29	28	28	28	28	29	29	29	29	28	28	28	28	25	25	25	25	28	28	28	28	27	27	27	27	27	27	27	27	27	27	27	27	27	27	27	27	31	31	31	31	31	31	31	31	31	31	31	31	31	31	31	31	31	31	31	31
57	57	57	57	57	57	57	57	57	57	57	57	51	51	51	51	50	50	50	50	50	50	50	50	51	51	51	51	51	51	51	51	55	55	55	55	50	50	50	50	46	46	46	46	39	39	39	39	38	38	38	38	38	38	38	38	38	38	38	38	38	38	38	38	29	29	29	29	38	38	38	38	39	39	39	39	37	37	37	37	37	37	37	37	27	27	27	27	37	37	37	37	40	40	40	40	36	36	36	36	31	31	31	31	31	31	31	31	31	31	31	31	31	31	31	31	31	31	31	31	31	31	31	31	30	30	30	30	30	30	30	30	32	32	32	32	32	32	32	32	36	36	36	36	36	36	36	36	36	36	36	36	36	36	36	36	36	36	36	36	32	32	32	32	32	32	32	32	32	32	32	32	32	32	32	32	32	32	32	32	30	30	30	30	33	33	33	33	32	32	32	32	36	36	36	36	34	34	34	34	38	38	38	38	38	38	38	38	38	38	38	38	39	39	39	39	40	40	40	40	40	40	40	40	41	41	41	41	41	41	41	41	37	37	37	37	39	39	39	39	40	40	40	40	40	40	40	40	41	41	41	41	42	42	42	42	37	37	37	37	43	43	43	43	41	41	41	41	41	41	41	41	37	37	37	37	40	40	40	40	37	37	37	37	37	37	37	37	38	38	38	38	38	38	38	38	34	34	34	34	38	38	38	38	43	43	43	43	41	41	41	41	39	39	39	39	34	34	34	34	30	30	30	30	31	31	31	31	27	27	27	27	27	27	27	27	28	28	28	28	29	29	29	29	28	28	28	28	29	29	29	29	28	28	28	28	25	25	25	25	28	28	28	28	27	27	27	27	27	27	27	27	27	27	27	27	27	27	27	27	31	31	31	31	31	31	31	31	31	31	31	31	31	31	31	31	31	31	31	31
57	57	57	57	57	57	57	57	57	57	57	57	51	51	51	51	50	50	50	50	50	50	50	50	51	51	51	51	51	51	51	51	55	55	55	55	50	50	50	50	46	46	46	46	39	39	39	39	38	38	38	38	38	38	38	38	38	38	38	38	38	38	38	38	29	29	29	29	38	38	38	38	39	39	39	39	37	37	37	37	37	37	37	37	27	27	27	27	37	37	37	37	40	40	40	40	36	36	36	36	31	31	31	31	31	31	31	31	31	31	31	31	31	31	31	31	31	31	31	31	31	31	31	31	30	30	30	30	30	30	30	30	32	32	32	32	32	32	32	32	36	36	36	36	36	36	36	36	36	36	36	36	36	36	36	36	36	36	36	36	32	32	32	32	32	32	32	32	32	32	32	32	32	32	32	32	32	32	32	32	30	30	30	30	33	33	33	33	32	32	32	32	36	36	36	36	34	34	34	34	38	38	38	38	38	38	38	38	38	38	38	38	39	39	39	39	40	40	40	40	40	40	40	40	41	41	41	41	41	41	41	41	37	37	37	37	39	39	39	39	40	40	40	40	40	40	40	40	41	41	41	41	42	42	42	42	37	37	37	37	43	43	43	43	41	41	41	41	41	41	41	41	37	37	37	37	40	40	40	40	37	37	37	37	37	37	37	37	38	38	38	38	38	38	38	38	34	34	34	34	38	38	38	38	43	43	43	43	41	41	41	41	39	39	39	39	34	34	34	34	30	30	30	30	31	31	31	31	27	27	27	27	27	27	27	27	28	28	28	28	29	29	29	29	28	28	28	28	29	29	29	29	28	28	28	28	25	25	25	25	28	28	28	28	27	27	27	27	27	27	27	27	27	27	27	27	27	27	27	27	31	31	31	31	31	31	31	31	31	31	31	31	31	31	31	31	31	31	31	31
57	57	57	57	57	57	57	57	57	57	57	57	51	51	51	51	50	50	50	50	50	50	50	50	51	51	51	51	51	51	51	51	55	55	55	55	50	50	50	50	46	46	46	46	39	39	39	39	38	38	38	38	38	38	38	38	38	38	38	38	38	38	38	38	29	29	29	29	38	38	38	38	39	39	39	39	37	37	37	37	37	37	37	37	27	27	27	27	37	37	37	37	40	40	40	40	36	36	36	36	31	31	31	31	31	31	31	31	31	31	31	31	31	31	31	31	31	31	31	31	31	31	31	31	30	30	30	30	30	30	30	30	32	32	32	32	32	32	32	32	36	36	36	36	36	36	36	36	36	36	36	36	36	36	36	36	36	36	36	36	32	32	32	32	32	32	32	32	32	32	32	32	32	32	32	32	32	32	32	32	30	30	30	30	33	33	33	33	32	32	32	32	36	36	36	36	34	34	34	34	38	38	38	38	38	38	38	38	38	38	38	38	39	39	39	39	40	40	40	40	40	40	40	40	41	41	41	41	41	41	41	41	37	37	37	37	39	39	39	39	40	40	40	40	40	40	40	40	41	41	41	41	42	42	42	42	37	37	37	37	43	43	43	43	41	41	41	41	41	41	41	41	37	37	37	37	40	40	40	40	37	37	37	37	37	37	37	37	38	38	38	38	38	38	38	38	34	34	34	34	38	38	38	38	43	43	43	43	41	41	41	41	39	39	39	39	34	34	34	34	30	30	30	30	31	31	31	31	27	27	27	27	27	27	27	27	28	28	28	28	29	29	29	29	28	28	28	28	29	29	29	29	28	28	28	28	25	25	25	25	28	28	28	28	27	27	27	27	27	27	27	27	27	27	27	27	27	27	27	27	31	31	31	31	31	31	31	31	31	31	31	31	31	31	31	31	31	31	31	31
