ncols         400
nrows         95
xllcorner     2680750
yllcorner     1933750
cellsize      250
NODATA_value  -9999
0	0	0	0	0	0	0	0	0	0	0	0	0	0	0	0	0	0	0	0	0	0	0	0	0	0	0	0	0	0	0	0	0	0	0	0	0	0	0	0	0	0	0	0	0	0	0	0	0	0	0	0	0	0	0	0	0	0	0	0	0	0	0	0	0	0	0	0	0	0	0	0	0	0	0	0	0	0	0	0	0	0	0	0	0	0	0	0	0	0	0	0	0	0	0	6	6	6	6	10	10	10	10	11	11	11	11	13	13	13	13	14	14	14	14	16	16	16	16	16	16	16	16	16	16	16	16	14	14	14	14	21	21	21	21	31	31	31	31	24	24	24	24	27	27	27	27	42	42	42	42	68	68	68	68	58	58	58	58	27	27	27	27	27	27	27	27	31	31	31	31	31	31	31	31	28	28	28	28	25	25	25	25	16	16	16	16	8	8	8	8	1	1	1	1	0	0	0	0	0	0	0	0	0	0	0	0	0	0	0	0	0	0	0	0	0	0	0	0	0	0	0	0	0	0	0	0	0	0	0	0	0	0	0	0	0	0	0	0	0	0	0	0	0	0	0	0	0	0	0	0	1	1	1	1	2	2	2	2	2	2	2	2	4	4	4	4	3	3	3	3	5	5	5	5	6	6	6	6	8	8	8	8	5	5	5	5	4	4	4	4	3	3	3	3	5	5	5	5	8	8	8	8	10	10	10	10	8	8	8	8	3	3	3	3	6	6	6	6	13	13	13	13	12	12	12	12	17	17	17	17	16	16	16	16	15	15	15	15	12	12	12	12	15	15	15	15	15	15	15	15	16	16	16	16	16	16	16	16	20	20	20	20	21	21	21	21	16	16	16	16	12	12	12	12	10	10	10	10	8	8	8	8	3	3	3	3	3	3	3	3	3	3	3	3	3	3	3	3	6
0	0	0	0	0	0	0	0	0	0	0	0	0	0	0	0	0	0	0	0	0	0	0	0	0	0	0	0	0	0	0	0	0	0	0	0	0	0	0	0	0	0	0	0	0	0	0	0	0	0	0	0	0	0	0	0	0	0	0	0	0	0	0	0	0	0	0	0	0	0	0	0	0	0	0	0	0	0	0	0	0	0	0	0	0	0	0	0	0	0	0	0	0	0	0	6	6	6	6	10	10	10	10	11	11	11	11	13	13	13	13	14	14	14	14	16	16	16	16	16	16	16	16	16	16	16	16	14	14	14	14	21	21	21	21	31	31	31	31	24	24	24	24	27	27	27	27	42	42	42	42	68	68	68	68	58	58	58	58	27	27	27	27	27	27	27	27	31	31	31	31	31	31	31	31	28	28	28	28	25	25	25	25	16	16	16	16	8	8	8	8	1	1	1	1	0	0	0	0	0	0	0	0	0	0	0	0	0	0	0	0	0	0	0	0	0	0	0	0	0	0	0	0	0	0	0	0	0	0	0	0	0	0	0	0	0	0	0	0	0	0	0	0	0	0	0	0	0	0	0	0	1	1	1	1	2	2	2	2	2	2	2	2	4	4	4	4	3	3	3	3	5	5	5	5	6	6	6	6	8	8	8	8	5	5	5	5	4	4	4	4	3	3	3	3	5	5	5	5	8	8	8	8	10	10	10	10	8	8	8	8	3	3	3	3	6	6	6	6	13	13	13	13	12	12	12	12	17	17	17	17	16	16	16	16	15	15	15	15	12	12	12	12	15	15	15	15	15	15	15	15	16	16	16	16	16	16	16	16	20	20	20	20	21	21	21	21	16	16	16	16	12	12	12	12	10	10	10	10	8	8	8	8	3	3	3	3	3	3	3	3	3	3	3	3	3	3	3	3	6
0	0	0	0	0	0	0	0	0	0	0	0	0	0	0	0	0	0	0	0	0	0	0	0	0	0	0	0	0	0	0	0	0	0	0	0	0	0	0	0	0	0	0	0	0	0	0	0	0	0	0	0	0	0	0	0	0	0	0	0	0	0	0	0	0	0	0	0	0	0	0	0	0	0	0	0	0	0	0	0	0	0	0	0	0	0	0	0	0	0	0	0	0	0	0	6	6	6	6	10	10	10	10	11	11	11	11	13	13	13	13	14	14	14	14	16	16	16	16	16	16	16	16	16	16	16	16	14	14	14	14	21	21	21	21	31	31	31	31	24	24	24	24	27	27	27	27	42	42	42	42	68	68	68	68	58	58	58	58	27	27	27	27	27	27	27	27	31	31	31	31	31	31	31	31	28	28	28	28	25	25	25	25	16	16	16	16	8	8	8	8	1	1	1	1	0	0	0	0	0	0	0	0	0	0	0	0	0	0	0	0	0	0	0	0	0	0	0	0	0	0	0	0	0	0	0	0	0	0	0	0	0	0	0	0	0	0	0	0	0	0	0	0	0	0	0	0	0	0	0	0	1	1	1	1	2	2	2	2	2	2	2	2	4	4	4	4	3	3	3	3	5	5	5	5	6	6	6	6	8	8	8	8	5	5	5	5	4	4	4	4	3	3	3	3	5	5	5	5	8	8	8	8	10	10	10	10	8	8	8	8	3	3	3	3	6	6	6	6	13	13	13	13	12	12	12	12	17	17	17	17	16	16	16	16	15	15	15	15	12	12	12	12	15	15	15	15	15	15	15	15	16	16	16	16	16	16	16	16	20	20	20	20	21	21	21	21	16	16	16	16	12	12	12	12	10	10	10	10	8	8	8	8	3	3	3	3	3	3	3	3	3	3	3	3	3	3	3	3	6
0	0	0	0	0	0	0	0	0	0	0	0	0	0	0	0	0	0	0	0	0	0	0	0	0	0	0	0	0	0	0	0	0	0	0	0	0	0	0	0	0	0	0	0	0	0	0	0	0	0	0	0	0	0	0	0	0	0	0	0	0	0	0	0	0	0	0	0	0	0	0	0	0	0	0	0	0	0	0	0	0	0	0	0	0	0	0	0	0	0	0	0	0	0	0	1	1	1	1	3	3	3	3	6	6	6	6	3	3	3	3	3	3	3	3	4	4	4	4	1	1	1	1	8	8	8	8	8	8	8	8	19	19	19	19	22	22	22	22	16	16	16	16	30	30	30	30	49	49	49	49	61	61	61	61	40	40	40	40	30	30	30	30	30	30	30	30	30	30	30	30	31	31	31	31	22	22	22	22	19	19	19	19	13	13	13	13	3	3	3	3	1	1	1	1	0	0	0	0	0	0	0	0	0	0	0	0	0	0	0	0	0	0	0	0	0	0	0	0	0	0	0	0	0	0	0	0	0	0	0	0	0	0	0	0	0	0	0	0	0	0	0	0	0	0	0	0	0	0	0	0	2	2	2	2	4	4	4	4	3	3	3	3	3	3	3	3	5	5	5	5	5	5	5	5	6	6	6	6	6	6	6	6	5	5	5	5	5	5	5	5	5	5	5	5	5	5	5	5	7	7	7	7	11	11	11	11	12	12	12	12	5	5	5	5	5	5	5	5	9	9	9	9	13	13	13	13	17	17	17	17	16	16	16	16	15	15	15	15	17	17	17	17	15	15	15	15	17	17	17	17	17	17	17	17	17	17	17	17	19	19	19	19	21	21	21	21	21	21	21	21	19	19	19	19	20	20	20	20	12	12	12	12	9	9	9	9	8	8	8	8	8	8	8	8	8	8	8	8	9
0	0	0	0	0	0	0	0	0	0	0	0	0	0	0	0	0	0	0	0	0	0	0	0	0	0	0	0	0	0	0	0	0	0	0	0	0	0	0	0	0	0	0	0	0	0	0	0	0	0	0	0	0	0	0	0	0	0	0	0	0	0	0	0	0	0	0	0	0	0	0	0	0	0	0	0	0	0	0	0	0	0	0	0	0	0	0	0	0	0	0	0	0	0	0	1	1	1	1	3	3	3	3	6	6	6	6	3	3	3	3	3	3	3	3	4	4	4	4	1	1	1	1	8	8	8	8	8	8	8	8	19	19	19	19	22	22	22	22	16	16	16	16	30	30	30	30	49	49	49	49	61	61	61	61	40	40	40	40	30	30	30	30	30	30	30	30	30	30	30	30	31	31	31	31	22	22	22	22	19	19	19	19	13	13	13	13	3	3	3	3	1	1	1	1	0	0	0	0	0	0	0	0	0	0	0	0	0	0	0	0	0	0	0	0	0	0	0	0	0	0	0	0	0	0	0	0	0	0	0	0	0	0	0	0	0	0	0	0	0	0	0	0	0	0	0	0	0	0	0	0	2	2	2	2	4	4	4	4	3	3	3	3	3	3	3	3	5	5	5	5	5	5	5	5	6	6	6	6	6	6	6	6	5	5	5	5	5	5	5	5	5	5	5	5	5	5	5	5	7	7	7	7	11	11	11	11	12	12	12	12	5	5	5	5	5	5	5	5	9	9	9	9	13	13	13	13	17	17	17	17	16	16	16	16	15	15	15	15	17	17	17	17	15	15	15	15	17	17	17	17	17	17	17	17	17	17	17	17	19	19	19	19	21	21	21	21	21	21	21	21	19	19	19	19	20	20	20	20	12	12	12	12	9	9	9	9	8	8	8	8	8	8	8	8	8	8	8	8	9
0	0	0	0	0	0	0	0	0	0	0	0	0	0	0	0	0	0	0	0	0	0	0	0	0	0	0	0	0	0	0	0	0	0	0	0	0	0	0	0	0	0	0	0	0	0	0	0	0	0	0	0	0	0	0	0	0	0	0	0	0	0	0	0	0	0	0	0	0	0	0	0	0	0	0	0	0	0	0	0	0	0	0	0	0	0	0	0	0	0	0	0	0	0	0	1	1	1	1	3	3	3	3	6	6	6	6	3	3	3	3	3	3	3	3	4	4	4	4	1	1	1	1	8	8	8	8	8	8	8	8	19	19	19	19	22	22	22	22	16	16	16	16	30	30	30	30	49	49	49	49	61	61	61	61	40	40	40	40	30	30	30	30	30	30	30	30	30	30	30	30	31	31	31	31	22	22	22	22	19	19	19	19	13	13	13	13	3	3	3	3	1	1	1	1	0	0	0	0	0	0	0	0	0	0	0	0	0	0	0	0	0	0	0	0	0	0	0	0	0	0	0	0	0	0	0	0	0	0	0	0	0	0	0	0	0	0	0	0	0	0	0	0	0	0	0	0	0	0	0	0	2	2	2	2	4	4	4	4	3	3	3	3	3	3	3	3	5	5	5	5	5	5	5	5	6	6	6	6	6	6	6	6	5	5	5	5	5	5	5	5	5	5	5	5	5	5	5	5	7	7	7	7	11	11	11	11	12	12	12	12	5	5	5	5	5	5	5	5	9	9	9	9	13	13	13	13	17	17	17	17	16	16	16	16	15	15	15	15	17	17	17	17	15	15	15	15	17	17	17	17	17	17	17	17	17	17	17	17	19	19	19	19	21	21	21	21	21	21	21	21	19	19	19	19	20	20	20	20	12	12	12	12	9	9	9	9	8	8	8	8	8	8	8	8	8	8	8	8	9
0	0	0	0	0	0	0	0	0	0	0	0	0	0	0	0	0	0	0	0	0	0	0	0	0	0	0	0	0	0	0	0	0	0	0	0	0	0	0	0	0	0	0	0	0	0	0	0	0	0	0	0	0	0	0	0	0	0	0	0	0	0	0	0	0	0	0	0	0	0	0	0	0	0	0	0	0	0	0	0	0	0	0	0	0	0	0	0	0	0	0	0	0	0	0	1	1	1	1	3	3	3	3	6	6	6	6	3	3	3	3	3	3	3	3	4	4	4	4	1	1	1	1	8	8	8	8	8	8	8	8	19	19	19	19	22	22	22	22	16	16	16	16	30	30	30	30	49	49	49	49	61	61	61	61	40	40	40	40	30	30	30	30	30	30	30	30	30	30	30	30	31	31	31	31	22	22	22	22	19	19	19	19	13	13	13	13	3	3	3	3	1	1	1	1	0	0	0	0	0	0	0	0	0	0	0	0	0	0	0	0	0	0	0	0	0	0	0	0	0	0	0	0	0	0	0	0	0	0	0	0	0	0	0	0	0	0	0	0	0	0	0	0	0	0	0	0	0	0	0	0	2	2	2	2	4	4	4	4	3	3	3	3	3	3	3	3	5	5	5	5	5	5	5	5	6	6	6	6	6	6	6	6	5	5	5	5	5	5	5	5	5	5	5	5	5	5	5	5	7	7	7	7	11	11	11	11	12	12	12	12	5	5	5	5	5	5	5	5	9	9	9	9	13	13	13	13	17	17	17	17	16	16	16	16	15	15	15	15	17	17	17	17	15	15	15	15	17	17	17	17	17	17	17	17	17	17	17	17	19	19	19	19	21	21	21	21	21	21	21	21	19	19	19	19	20	20	20	20	12	12	12	12	9	9	9	9	8	8	8	8	8	8	8	8	8	8	8	8	9
0	0	0	0	0	0	0	0	0	0	0	0	0	0	0	0	0	0	0	0	0	0	0	0	0	0	0	0	0	0	0	0	0	0	0	0	0	0	0	0	0	0	0	0	0	0	0	0	0	0	0	0	0	0	0	0	0	0	0	0	0	0	0	0	0	0	0	0	0	0	0	0	0	0	0	0	0	0	0	0	0	0	0	0	0	0	0	0	0	0	0	0	0	0	0	0	0	0	0	0	0	0	0	0	0	0	0	1	1	1	1	0	0	0	0	0	0	0	0	0	0	0	0	0	0	0	0	0	0	0	0	0	0	0	0	9	9	9	9	16	16	16	16	31	31	31	31	38	38	38	38	32	32	32	32	28	28	28	28	32	32	32	32	30	30	30	30	23	23	23	23	27	27	27	27	20	20	20	20	12	12	12	12	3	3	3	3	1	1	1	1	0	0	0	0	0	0	0	0	0	0	0	0	0	0	0	0	0	0	0	0	0	0	0	0	0	0	0	0	0	0	0	0	0	0	0	0	0	0	0	0	0	0	0	0	0	0	0	0	0	0	0	0	0	0	0	0	0	0	0	0	3	3	3	3	5	5	5	5	5	5	5	5	3	3	3	3	3	3	3	3	6	6	6	6	7	7	7	7	6	6	6	6	6	6	6	6	9	9	9	9	9	9	9	9	10	10	10	10	7	7	7	7	10	10	10	10	15	15	15	15	8	8	8	8	4	4	4	4	5	5	5	5	10	10	10	10	14	14	14	14	16	16	16	16	19	19	19	19	16	16	16	16	17	17	17	17	17	17	17	17	19	19	19	19	16	16	16	16	16	16	16	16	21	21	21	21	26	26	26	26	21	21	21	21	20	20	20	20	15	15	15	15	12	12	12	12	9	9	9	9	11	11	11	11	13	13	13	13	13
0	0	0	0	0	0	0	0	0	0	0	0	0	0	0	0	0	0	0	0	0	0	0	0	0	0	0	0	0	0	0	0	0	0	0	0	0	0	0	0	0	0	0	0	0	0	0	0	0	0	0	0	0	0	0	0	0	0	0	0	0	0	0	0	0	0	0	0	0	0	0	0	0	0	0	0	0	0	0	0	0	0	0	0	0	0	0	0	0	0	0	0	0	0	0	0	0	0	0	0	0	0	0	0	0	0	0	1	1	1	1	0	0	0	0	0	0	0	0	0	0	0	0	0	0	0	0	0	0	0	0	0	0	0	0	9	9	9	9	16	16	16	16	31	31	31	31	38	38	38	38	32	32	32	32	28	28	28	28	32	32	32	32	30	30	30	30	23	23	23	23	27	27	27	27	20	20	20	20	12	12	12	12	3	3	3	3	1	1	1	1	0	0	0	0	0	0	0	0	0	0	0	0	0	0	0	0	0	0	0	0	0	0	0	0	0	0	0	0	0	0	0	0	0	0	0	0	0	0	0	0	0	0	0	0	0	0	0	0	0	0	0	0	0	0	0	0	0	0	0	0	3	3	3	3	5	5	5	5	5	5	5	5	3	3	3	3	3	3	3	3	6	6	6	6	7	7	7	7	6	6	6	6	6	6	6	6	9	9	9	9	9	9	9	9	10	10	10	10	7	7	7	7	10	10	10	10	15	15	15	15	8	8	8	8	4	4	4	4	5	5	5	5	10	10	10	10	14	14	14	14	16	16	16	16	19	19	19	19	16	16	16	16	17	17	17	17	17	17	17	17	19	19	19	19	16	16	16	16	16	16	16	16	21	21	21	21	26	26	26	26	21	21	21	21	20	20	20	20	15	15	15	15	12	12	12	12	9	9	9	9	11	11	11	11	13	13	13	13	13
0	0	0	0	0	0	0	0	0	0	0	0	0	0	0	0	0	0	0	0	0	0	0	0	0	0	0	0	0	0	0	0	0	0	0	0	0	0	0	0	0	0	0	0	0	0	0	0	0	0	0	0	0	0	0	0	0	0	0	0	0	0	0	0	0	0	0	0	0	0	0	0	0	0	0	0	0	0	0	0	0	0	0	0	0	0	0	0	0	0	0	0	0	0	0	0	0	0	0	0	0	0	0	0	0	0	0	1	1	1	1	0	0	0	0	0	0	0	0	0	0	0	0	0	0	0	0	0	0	0	0	0	0	0	0	9	9	9	9	16	16	16	16	31	31	31	31	38	38	38	38	32	32	32	32	28	28	28	28	32	32	32	32	30	30	30	30	23	23	23	23	27	27	27	27	20	20	20	20	12	12	12	12	3	3	3	3	1	1	1	1	0	0	0	0	0	0	0	0	0	0	0	0	0	0	0	0	0	0	0	0	0	0	0	0	0	0	0	0	0	0	0	0	0	0	0	0	0	0	0	0	0	0	0	0	0	0	0	0	0	0	0	0	0	0	0	0	0	0	0	0	3	3	3	3	5	5	5	5	5	5	5	5	3	3	3	3	3	3	3	3	6	6	6	6	7	7	7	7	6	6	6	6	6	6	6	6	9	9	9	9	9	9	9	9	10	10	10	10	7	7	7	7	10	10	10	10	15	15	15	15	8	8	8	8	4	4	4	4	5	5	5	5	10	10	10	10	14	14	14	14	16	16	16	16	19	19	19	19	16	16	16	16	17	17	17	17	17	17	17	17	19	19	19	19	16	16	16	16	16	16	16	16	21	21	21	21	26	26	26	26	21	21	21	21	20	20	20	20	15	15	15	15	12	12	12	12	9	9	9	9	11	11	11	11	13	13	13	13	13
0	0	0	0	0	0	0	0	0	0	0	0	0	0	0	0	0	0	0	0	0	0	0	0	0	0	0	0	0	0	0	0	0	0	0	0	0	0	0	0	0	0	0	0	0	0	0	0	0	0	0	0	0	0	0	0	0	0	0	0	0	0	0	0	0	0	0	0	0	0	0	0	0	0	0	0	0	0	0	0	0	0	0	0	0	0	0	0	0	0	0	0	0	0	0	0	0	0	0	0	0	0	0	0	0	0	0	1	1	1	1	0	0	0	0	0	0	0	0	0	0	0	0	0	0	0	0	0	0	0	0	0	0	0	0	9	9	9	9	16	16	16	16	31	31	31	31	38	38	38	38	32	32	32	32	28	28	28	28	32	32	32	32	30	30	30	30	23	23	23	23	27	27	27	27	20	20	20	20	12	12	12	12	3	3	3	3	1	1	1	1	0	0	0	0	0	0	0	0	0	0	0	0	0	0	0	0	0	0	0	0	0	0	0	0	0	0	0	0	0	0	0	0	0	0	0	0	0	0	0	0	0	0	0	0	0	0	0	0	0	0	0	0	0	0	0	0	0	0	0	0	3	3	3	3	5	5	5	5	5	5	5	5	3	3	3	3	3	3	3	3	6	6	6	6	7	7	7	7	6	6	6	6	6	6	6	6	9	9	9	9	9	9	9	9	10	10	10	10	7	7	7	7	10	10	10	10	15	15	15	15	8	8	8	8	4	4	4	4	5	5	5	5	10	10	10	10	14	14	14	14	16	16	16	16	19	19	19	19	16	16	16	16	17	17	17	17	17	17	17	17	19	19	19	19	16	16	16	16	16	16	16	16	21	21	21	21	26	26	26	26	21	21	21	21	20	20	20	20	15	15	15	15	12	12	12	12	9	9	9	9	11	11	11	11	13	13	13	13	13
0	0	0	0	0	0	0	0	0	0	0	0	0	0	0	0	0	0	0	0	0	0	0	0	0	0	0	0	0	0	0	0	0	0	0	0	0	0	0	0	0	0	0	0	0	0	0	0	0	0	0	0	0	0	0	0	0	0	0	0	0	0	0	0	0	0	0	0	0	0	0	0	0	0	0	0	0	0	0	0	0	0	0	0	0	0	0	0	0	0	0	0	0	0	0	0	0	0	0	0	0	0	0	0	0	0	0	0	0	0	0	0	0	0	0	0	0	0	0	0	0	0	0	0	0	0	0	0	0	0	0	0	0	0	0	4	4	4	4	5	5	5	5	13	13	13	13	12	12	12	12	12	12	12	12	17	17	17	17	21	21	21	21	19	19	19	19	14	14	14	14	24	24	24	24	14	14	14	14	5	5	5	5	2	2	2	2	0	0	0	0	0	0	0	0	0	0	0	0	0	0	0	0	0	0	0	0	0	0	0	0	0	0	0	0	0	0	0	0	0	0	0	0	0	0	0	0	0	0	0	0	0	0	0	0	0	0	0	0	0	0	0	0	0	0	0	0	0	0	0	0	3	3	3	3	5	5	5	5	5	5	5	5	5	5	5	5	3	3	3	3	5	5	5	5	7	7	7	7	8	8	8	8	9	9	9	9	10	10	10	10	13	13	13	13	13	13	13	13	9	9	9	9	9	9	9	9	10	10	10	10	13	13	13	13	13	13	13	13	7	7	7	7	9	9	9	9	12	12	12	12	17	17	17	17	19	19	19	19	20	20	20	20	18	18	18	18	16	16	16	16	20	20	20	20	19	19	19	19	19	19	19	19	18	18	18	18	21	21	21	21	26	26	26	26	18	18	18	18	16	16	16	16	16	16	16	16	13	13	13	13	15	15	15	15	12	12	12	12	12
0	0	0	0	0	0	0	0	0	0	0	0	0	0	0	0	0	0	0	0	0	0	0	0	0	0	0	0	0	0	0	0	0	0	0	0	0	0	0	0	0	0	0	0	0	0	0	0	0	0	0	0	0	0	0	0	0	0	0	0	0	0	0	0	0	0	0	0	0	0	0	0	0	0	0	0	0	0	0	0	0	0	0	0	0	0	0	0	0	0	0	0	0	0	0	0	0	0	0	0	0	0	0	0	0	0	0	0	0	0	0	0	0	0	0	0	0	0	0	0	0	0	0	0	0	0	0	0	0	0	0	0	0	0	0	4	4	4	4	5	5	5	5	13	13	13	13	12	12	12	12	12	12	12	12	17	17	17	17	21	21	21	21	19	19	19	19	14	14	14	14	24	24	24	24	14	14	14	14	5	5	5	5	2	2	2	2	0	0	0	0	0	0	0	0	0	0	0	0	0	0	0	0	0	0	0	0	0	0	0	0	0	0	0	0	0	0	0	0	0	0	0	0	0	0	0	0	0	0	0	0	0	0	0	0	0	0	0	0	0	0	0	0	0	0	0	0	0	0	0	0	3	3	3	3	5	5	5	5	5	5	5	5	5	5	5	5	3	3	3	3	5	5	5	5	7	7	7	7	8	8	8	8	9	9	9	9	10	10	10	10	13	13	13	13	13	13	13	13	9	9	9	9	9	9	9	9	10	10	10	10	13	13	13	13	13	13	13	13	7	7	7	7	9	9	9	9	12	12	12	12	17	17	17	17	19	19	19	19	20	20	20	20	18	18	18	18	16	16	16	16	20	20	20	20	19	19	19	19	19	19	19	19	18	18	18	18	21	21	21	21	26	26	26	26	18	18	18	18	16	16	16	16	16	16	16	16	13	13	13	13	15	15	15	15	12	12	12	12	12
0	0	0	0	0	0	0	0	0	0	0	0	0	0	0	0	0	0	0	0	0	0	0	0	0	0	0	0	0	0	0	0	0	0	0	0	0	0	0	0	0	0	0	0	0	0	0	0	0	0	0	0	0	0	0	0	0	0	0	0	0	0	0	0	0	0	0	0	0	0	0	0	0	0	0	0	0	0	0	0	0	0	0	0	0	0	0	0	0	0	0	0	0	0	0	0	0	0	0	0	0	0	0	0	0	0	0	0	0	0	0	0	0	0	0	0	0	0	0	0	0	0	0	0	0	0	0	0	0	0	0	0	0	0	0	4	4	4	4	5	5	5	5	13	13	13	13	12	12	12	12	12	12	12	12	17	17	17	17	21	21	21	21	19	19	19	19	14	14	14	14	24	24	24	24	14	14	14	14	5	5	5	5	2	2	2	2	0	0	0	0	0	0	0	0	0	0	0	0	0	0	0	0	0	0	0	0	0	0	0	0	0	0	0	0	0	0	0	0	0	0	0	0	0	0	0	0	0	0	0	0	0	0	0	0	0	0	0	0	0	0	0	0	0	0	0	0	0	0	0	0	3	3	3	3	5	5	5	5	5	5	5	5	5	5	5	5	3	3	3	3	5	5	5	5	7	7	7	7	8	8	8	8	9	9	9	9	10	10	10	10	13	13	13	13	13	13	13	13	9	9	9	9	9	9	9	9	10	10	10	10	13	13	13	13	13	13	13	13	7	7	7	7	9	9	9	9	12	12	12	12	17	17	17	17	19	19	19	19	20	20	20	20	18	18	18	18	16	16	16	16	20	20	20	20	19	19	19	19	19	19	19	19	18	18	18	18	21	21	21	21	26	26	26	26	18	18	18	18	16	16	16	16	16	16	16	16	13	13	13	13	15	15	15	15	12	12	12	12	12
0	0	0	0	0	0	0	0	0	0	0	0	0	0	0	0	0	0	0	0	0	0	0	0	0	0	0	0	0	0	0	0	0	0	0	0	0	0	0	0	0	0	0	0	0	0	0	0	0	0	0	0	0	0	0	0	0	0	0	0	0	0	0	0	0	0	0	0	0	0	0	0	0	0	0	0	0	0	0	0	0	0	0	0	0	0	0	0	0	0	0	0	0	0	0	0	0	0	0	0	0	0	0	0	0	0	0	0	0	0	0	0	0	0	0	0	0	0	0	0	0	0	0	0	0	0	0	0	0	0	0	0	0	0	0	4	4	4	4	5	5	5	5	13	13	13	13	12	12	12	12	12	12	12	12	17	17	17	17	21	21	21	21	19	19	19	19	14	14	14	14	24	24	24	24	14	14	14	14	5	5	5	5	2	2	2	2	0	0	0	0	0	0	0	0	0	0	0	0	0	0	0	0	0	0	0	0	0	0	0	0	0	0	0	0	0	0	0	0	0	0	0	0	0	0	0	0	0	0	0	0	0	0	0	0	0	0	0	0	0	0	0	0	0	0	0	0	0	0	0	0	3	3	3	3	5	5	5	5	5	5	5	5	5	5	5	5	3	3	3	3	5	5	5	5	7	7	7	7	8	8	8	8	9	9	9	9	10	10	10	10	13	13	13	13	13	13	13	13	9	9	9	9	9	9	9	9	10	10	10	10	13	13	13	13	13	13	13	13	7	7	7	7	9	9	9	9	12	12	12	12	17	17	17	17	19	19	19	19	20	20	20	20	18	18	18	18	16	16	16	16	20	20	20	20	19	19	19	19	19	19	19	19	18	18	18	18	21	21	21	21	26	26	26	26	18	18	18	18	16	16	16	16	16	16	16	16	13	13	13	13	15	15	15	15	12	12	12	12	12
0	0	0	0	0	0	0	0	0	0	0	0	0	0	0	0	0	0	0	0	0	0	0	0	0	0	0	0	0	0	0	0	0	0	0	0	0	0	0	0	0	0	0	0	0	0	0	0	0	0	0	0	0	0	0	0	0	0	0	0	0	0	0	0	0	0	0	0	0	0	0	0	0	0	0	0	0	0	0	0	0	0	0	0	0	0	0	0	0	0	0	0	0	0	0	0	0	0	0	0	0	0	0	0	0	0	0	0	0	0	0	0	0	0	0	0	0	0	0	0	0	0	0	0	0	0	0	0	0	0	0	0	0	0	0	0	0	0	0	0	0	0	0	0	0	0	0	1	1	1	1	4	4	4	4	3	3	3	3	3	3	3	3	8	8	8	8	9	9	9	9	11	11	11	11	3	3	3	3	1	1	1	1	0	0	0	0	0	0	0	0	0	0	0	0	0	0	0	0	0	0	0	0	0	0	0	0	0	0	0	0	0	0	0	0	0	0	0	0	0	0	0	0	0	0	0	0	0	0	0	0	0	0	0	0	0	0	0	0	0	0	0	0	0	0	0	0	3	3	3	3	3	3	3	3	5	5	5	5	6	6	6	6	6	6	6	6	6	6	6	6	6	6	6	6	8	8	8	8	11	11	11	11	10	10	10	10	11	11	11	11	13	13	13	13	13	13	13	13	12	12	12	12	10	10	10	10	8	8	8	8	11	11	11	11	15	15	15	15	10	10	10	10	5	5	5	5	8	8	8	8	13	13	13	13	15	15	15	15	18	18	18	18	21	21	21	21	20	20	20	20	21	21	21	21	26	26	26	26	20	20	20	20	21	21	21	21	24	24	24	24	23	23	23	23	22	22	22	22	19	19	19	19	16	16	16	16	15	15	15	15	20	20	20	20	16	16	16	16	14
0	0	0	0	0	0	0	0	0	0	0	0	0	0	0	0	0	0	0	0	0	0	0	0	0	0	0	0	0	0	0	0	0	0	0	0	0	0	0	0	0	0	0	0	0	0	0	0	0	0	0	0	0	0	0	0	0	0	0	0	0	0	0	0	0	0	0	0	0	0	0	0	0	0	0	0	0	0	0	0	0	0	0	0	0	0	0	0	0	0	0	0	0	0	0	0	0	0	0	0	0	0	0	0	0	0	0	0	0	0	0	0	0	0	0	0	0	0	0	0	0	0	0	0	0	0	0	0	0	0	0	0	0	0	0	0	0	0	0	0	0	0	0	0	0	0	0	1	1	1	1	4	4	4	4	3	3	3	3	3	3	3	3	8	8	8	8	9	9	9	9	11	11	11	11	3	3	3	3	1	1	1	1	0	0	0	0	0	0	0	0	0	0	0	0	0	0	0	0	0	0	0	0	0	0	0	0	0	0	0	0	0	0	0	0	0	0	0	0	0	0	0	0	0	0	0	0	0	0	0	0	0	0	0	0	0	0	0	0	0	0	0	0	0	0	0	0	3	3	3	3	3	3	3	3	5	5	5	5	6	6	6	6	6	6	6	6	6	6	6	6	6	6	6	6	8	8	8	8	11	11	11	11	10	10	10	10	11	11	11	11	13	13	13	13	13	13	13	13	12	12	12	12	10	10	10	10	8	8	8	8	11	11	11	11	15	15	15	15	10	10	10	10	5	5	5	5	8	8	8	8	13	13	13	13	15	15	15	15	18	18	18	18	21	21	21	21	20	20	20	20	21	21	21	21	26	26	26	26	20	20	20	20	21	21	21	21	24	24	24	24	23	23	23	23	22	22	22	22	19	19	19	19	16	16	16	16	15	15	15	15	20	20	20	20	16	16	16	16	14
0	0	0	0	0	0	0	0	0	0	0	0	0	0	0	0	0	0	0	0	0	0	0	0	0	0	0	0	0	0	0	0	0	0	0	0	0	0	0	0	0	0	0	0	0	0	0	0	0	0	0	0	0	0	0	0	0	0	0	0	0	0	0	0	0	0	0	0	0	0	0	0	0	0	0	0	0	0	0	0	0	0	0	0	0	0	0	0	0	0	0	0	0	0	0	0	0	0	0	0	0	0	0	0	0	0	0	0	0	0	0	0	0	0	0	0	0	0	0	0	0	0	0	0	0	0	0	0	0	0	0	0	0	0	0	0	0	0	0	0	0	0	0	0	0	0	0	1	1	1	1	4	4	4	4	3	3	3	3	3	3	3	3	8	8	8	8	9	9	9	9	11	11	11	11	3	3	3	3	1	1	1	1	0	0	0	0	0	0	0	0	0	0	0	0	0	0	0	0	0	0	0	0	0	0	0	0	0	0	0	0	0	0	0	0	0	0	0	0	0	0	0	0	0	0	0	0	0	0	0	0	0	0	0	0	0	0	0	0	0	0	0	0	0	0	0	0	3	3	3	3	3	3	3	3	5	5	5	5	6	6	6	6	6	6	6	6	6	6	6	6	6	6	6	6	8	8	8	8	11	11	11	11	10	10	10	10	11	11	11	11	13	13	13	13	13	13	13	13	12	12	12	12	10	10	10	10	8	8	8	8	11	11	11	11	15	15	15	15	10	10	10	10	5	5	5	5	8	8	8	8	13	13	13	13	15	15	15	15	18	18	18	18	21	21	21	21	20	20	20	20	21	21	21	21	26	26	26	26	20	20	20	20	21	21	21	21	24	24	24	24	23	23	23	23	22	22	22	22	19	19	19	19	16	16	16	16	15	15	15	15	20	20	20	20	16	16	16	16	14
0	0	0	0	0	0	0	0	0	0	0	0	0	0	0	0	0	0	0	0	0	0	0	0	0	0	0	0	0	0	0	0	0	0	0	0	0	0	0	0	0	0	0	0	0	0	0	0	0	0	0	0	0	0	0	0	0	0	0	0	0	0	0	0	0	0	0	0	0	0	0	0	0	0	0	0	0	0	0	0	0	0	0	0	0	0	0	0	0	0	0	0	0	0	0	0	0	0	0	0	0	0	0	0	0	0	0	0	0	0	0	0	0	0	0	0	0	0	0	0	0	0	0	0	0	0	0	0	0	0	0	0	0	0	0	0	0	0	0	0	0	0	0	0	0	0	0	1	1	1	1	4	4	4	4	3	3	3	3	3	3	3	3	8	8	8	8	9	9	9	9	11	11	11	11	3	3	3	3	1	1	1	1	0	0	0	0	0	0	0	0	0	0	0	0	0	0	0	0	0	0	0	0	0	0	0	0	0	0	0	0	0	0	0	0	0	0	0	0	0	0	0	0	0	0	0	0	0	0	0	0	0	0	0	0	0	0	0	0	0	0	0	0	0	0	0	0	3	3	3	3	3	3	3	3	5	5	5	5	6	6	6	6	6	6	6	6	6	6	6	6	6	6	6	6	8	8	8	8	11	11	11	11	10	10	10	10	11	11	11	11	13	13	13	13	13	13	13	13	12	12	12	12	10	10	10	10	8	8	8	8	11	11	11	11	15	15	15	15	10	10	10	10	5	5	5	5	8	8	8	8	13	13	13	13	15	15	15	15	18	18	18	18	21	21	21	21	20	20	20	20	21	21	21	21	26	26	26	26	20	20	20	20	21	21	21	21	24	24	24	24	23	23	23	23	22	22	22	22	19	19	19	19	16	16	16	16	15	15	15	15	20	20	20	20	16	16	16	16	14
0	0	0	0	0	0	0	0	0	0	0	0	0	0	0	0	0	0	0	0	0	0	0	0	0	0	0	0	0	0	0	0	0	0	0	0	0	0	0	0	0	0	0	0	0	0	0	0	0	0	0	0	0	0	0	0	0	0	0	0	0	0	0	0	0	0	0	0	0	0	0	0	0	0	0	0	0	0	0	0	0	0	0	0	0	0	0	0	0	0	0	0	0	0	0	0	0	0	0	0	0	0	0	0	0	0	0	0	0	0	0	0	0	0	0	0	0	0	0	0	0	0	0	6	6	6	6	0	0	0	0	0	0	0	0	0	0	0	0	0	0	0	0	0	0	0	0	0	0	0	0	0	0	0	0	1	1	1	1	1	1	1	1	1	1	1	1	1	1	1	1	0	0	0	0	0	0	0	0	0	0	0	0	0	0	0	0	0	0	0	0	0	0	0	0	0	0	0	0	0	0	0	0	0	0	0	0	0	0	0	0	0	0	0	0	0	0	0	0	0	0	0	0	0	0	0	0	0	0	0	0	0	0	0	0	0	0	0	0	0	0	0	0	0	0	0	0	5	5	5	5	7	7	7	7	8	8	8	8	9	9	9	9	8	8	8	8	9	9	9	9	9	9	9	9	10	10	10	10	13	13	13	13	13	13	13	13	12	12	12	12	12	12	12	12	12	12	12	12	12	12	12	12	11	11	11	11	13	13	13	13	11	11	11	11	12	12	12	12	12	12	12	12	10	10	10	10	6	6	6	6	13	13	13	13	16	16	16	16	19	19	19	19	22	22	22	22	24	24	24	24	24	24	24	24	25	25	25	25	21	21	21	21	21	21	21	21	25	25	25	25	23	23	23	23	20	20	20	20	18	18	18	18	20	20	20	20	16	16	16	16	24	24	24	24	21	21	21	21	18
0	0	0	0	0	0	0	0	0	0	0	0	0	0	0	0	0	0	0	0	0	0	0	0	0	0	0	0	0	0	0	0	0	0	0	0	0	0	0	0	0	0	0	0	0	0	0	0	0	0	0	0	0	0	0	0	0	0	0	0	0	0	0	0	0	0	0	0	0	0	0	0	0	0	0	0	0	0	0	0	0	0	0	0	0	0	0	0	0	0	0	0	0	0	0	0	0	0	0	0	0	0	0	0	0	0	0	0	0	0	0	0	0	0	0	0	0	0	0	0	0	0	0	6	6	6	6	0	0	0	0	0	0	0	0	0	0	0	0	0	0	0	0	0	0	0	0	0	0	0	0	0	0	0	0	1	1	1	1	1	1	1	1	1	1	1	1	1	1	1	1	0	0	0	0	0	0	0	0	0	0	0	0	0	0	0	0	0	0	0	0	0	0	0	0	0	0	0	0	0	0	0	0	0	0	0	0	0	0	0	0	0	0	0	0	0	0	0	0	0	0	0	0	0	0	0	0	0	0	0	0	0	0	0	0	0	0	0	0	0	0	0	0	0	0	0	0	5	5	5	5	7	7	7	7	8	8	8	8	9	9	9	9	8	8	8	8	9	9	9	9	9	9	9	9	10	10	10	10	13	13	13	13	13	13	13	13	12	12	12	12	12	12	12	12	12	12	12	12	12	12	12	12	11	11	11	11	13	13	13	13	11	11	11	11	12	12	12	12	12	12	12	12	10	10	10	10	6	6	6	6	13	13	13	13	16	16	16	16	19	19	19	19	22	22	22	22	24	24	24	24	24	24	24	24	25	25	25	25	21	21	21	21	21	21	21	21	25	25	25	25	23	23	23	23	20	20	20	20	18	18	18	18	20	20	20	20	16	16	16	16	24	24	24	24	21	21	21	21	18
0	0	0	0	0	0	0	0	0	0	0	0	0	0	0	0	0	0	0	0	0	0	0	0	0	0	0	0	0	0	0	0	0	0	0	0	0	0	0	0	0	0	0	0	0	0	0	0	0	0	0	0	0	0	0	0	0	0	0	0	0	0	0	0	0	0	0	0	0	0	0	0	0	0	0	0	0	0	0	0	0	0	0	0	0	0	0	0	0	0	0	0	0	0	0	0	0	0	0	0	0	0	0	0	0	0	0	0	0	0	0	0	0	0	0	0	0	0	0	0	0	0	0	6	6	6	6	0	0	0	0	0	0	0	0	0	0	0	0	0	0	0	0	0	0	0	0	0	0	0	0	0	0	0	0	1	1	1	1	1	1	1	1	1	1	1	1	1	1	1	1	0	0	0	0	0	0	0	0	0	0	0	0	0	0	0	0	0	0	0	0	0	0	0	0	0	0	0	0	0	0	0	0	0	0	0	0	0	0	0	0	0	0	0	0	0	0	0	0	0	0	0	0	0	0	0	0	0	0	0	0	0	0	0	0	0	0	0	0	0	0	0	0	0	0	0	0	5	5	5	5	7	7	7	7	8	8	8	8	9	9	9	9	8	8	8	8	9	9	9	9	9	9	9	9	10	10	10	10	13	13	13	13	13	13	13	13	12	12	12	12	12	12	12	12	12	12	12	12	12	12	12	12	11	11	11	11	13	13	13	13	11	11	11	11	12	12	12	12	12	12	12	12	10	10	10	10	6	6	6	6	13	13	13	13	16	16	16	16	19	19	19	19	22	22	22	22	24	24	24	24	24	24	24	24	25	25	25	25	21	21	21	21	21	21	21	21	25	25	25	25	23	23	23	23	20	20	20	20	18	18	18	18	20	20	20	20	16	16	16	16	24	24	24	24	21	21	21	21	18
0	0	0	0	0	0	0	0	0	0	0	0	0	0	0	0	0	0	0	0	0	0	0	0	0	0	0	0	0	0	0	0	0	0	0	0	0	0	0	0	0	0	0	0	0	0	0	0	0	0	0	0	0	0	0	0	0	0	0	0	0	0	0	0	0	0	0	0	0	0	0	0	0	0	0	0	0	0	0	0	0	0	0	0	0	0	0	0	0	0	0	0	0	0	0	0	0	0	0	0	0	0	0	0	0	0	0	0	0	0	0	0	0	0	0	0	0	0	0	0	0	0	0	6	6	6	6	0	0	0	0	0	0	0	0	0	0	0	0	0	0	0	0	0	0	0	0	0	0	0	0	0	0	0	0	1	1	1	1	1	1	1	1	1	1	1	1	1	1	1	1	0	0	0	0	0	0	0	0	0	0	0	0	0	0	0	0	0	0	0	0	0	0	0	0	0	0	0	0	0	0	0	0	0	0	0	0	0	0	0	0	0	0	0	0	0	0	0	0	0	0	0	0	0	0	0	0	0	0	0	0	0	0	0	0	0	0	0	0	0	0	0	0	0	0	0	0	5	5	5	5	7	7	7	7	8	8	8	8	9	9	9	9	8	8	8	8	9	9	9	9	9	9	9	9	10	10	10	10	13	13	13	13	13	13	13	13	12	12	12	12	12	12	12	12	12	12	12	12	12	12	12	12	11	11	11	11	13	13	13	13	11	11	11	11	12	12	12	12	12	12	12	12	10	10	10	10	6	6	6	6	13	13	13	13	16	16	16	16	19	19	19	19	22	22	22	22	24	24	24	24	24	24	24	24	25	25	25	25	21	21	21	21	21	21	21	21	25	25	25	25	23	23	23	23	20	20	20	20	18	18	18	18	20	20	20	20	16	16	16	16	24	24	24	24	21	21	21	21	18
0	0	0	0	0	0	0	0	0	0	0	0	0	0	0	0	0	0	0	0	0	0	0	0	0	0	0	0	0	0	0	0	0	0	0	0	0	0	0	0	0	0	0	0	0	0	0	0	0	0	0	0	0	0	0	0	0	0	0	0	0	0	0	0	0	0	0	0	0	0	0	0	0	0	0	0	0	0	0	0	0	0	0	0	0	0	0	0	0	0	0	0	0	0	0	0	0	0	0	0	0	0	0	0	0	0	0	0	0	0	0	0	0	0	0	0	0	0	0	0	0	0	0	6	6	6	6	19	19	19	19	28	28	28	28	34	34	34	34	32	32	32	32	32	32	32	32	0	0	0	0	0	0	0	0	0	0	0	0	0	0	0	0	0	0	0	0	0	0	0	0	0	0	0	0	0	0	0	0	0	0	0	0	0	0	0	0	0	0	0	0	0	0	0	0	0	0	0	0	0	0	0	0	0	0	0	0	0	0	0	0	4	4	4	4	2	2	2	2	1	1	1	1	0	0	0	0	5	5	5	5	8	8	8	8	6	6	6	6	3	3	3	3	0	0	0	0	6	6	6	6	8	8	8	8	8	8	8	8	8	8	8	8	9	9	9	9	9	9	9	9	10	10	10	10	11	11	11	11	13	13	13	13	12	12	12	12	15	15	15	15	12	12	12	12	12	12	12	12	13	13	13	13	13	13	13	13	12	12	12	12	12	12	12	12	12	12	12	12	12	12	12	12	13	13	13	13	7	7	7	7	10	10	10	10	17	17	17	17	20	20	20	20	18	18	18	18	24	24	24	24	23	23	23	23	28	28	28	28	28	28	28	28	24	24	24	24	25	25	25	25	25	25	25	25	21	21	21	21	24	24	24	24	20	20	20	20	26	26	26	26	26	26	26	26	18	18	18	18	20
0	0	0	0	0	0	0	0	0	0	0	0	0	0	0	0	0	0	0	0	0	0	0	0	0	0	0	0	0	0	0	0	0	0	0	0	0	0	0	0	0	0	0	0	0	0	0	0	0	0	0	0	0	0	0	0	0	0	0	0	0	0	0	0	0	0	0	0	0	0	0	0	0	0	0	0	0	0	0	0	0	0	0	0	0	0	0	0	0	0	0	0	0	0	0	0	0	0	0	0	0	0	0	0	0	0	0	0	0	0	0	0	0	0	0	0	0	0	0	0	0	0	0	6	6	6	6	19	19	19	19	28	28	28	28	34	34	34	34	32	32	32	32	32	32	32	32	0	0	0	0	0	0	0	0	0	0	0	0	0	0	0	0	0	0	0	0	0	0	0	0	0	0	0	0	0	0	0	0	0	0	0	0	0	0	0	0	0	0	0	0	0	0	0	0	0	0	0	0	0	0	0	0	0	0	0	0	0	0	0	0	4	4	4	4	2	2	2	2	1	1	1	1	0	0	0	0	5	5	5	5	8	8	8	8	6	6	6	6	3	3	3	3	0	0	0	0	6	6	6	6	8	8	8	8	8	8	8	8	8	8	8	8	9	9	9	9	9	9	9	9	10	10	10	10	11	11	11	11	13	13	13	13	12	12	12	12	15	15	15	15	12	12	12	12	12	12	12	12	13	13	13	13	13	13	13	13	12	12	12	12	12	12	12	12	12	12	12	12	12	12	12	12	13	13	13	13	7	7	7	7	10	10	10	10	17	17	17	17	20	20	20	20	18	18	18	18	24	24	24	24	23	23	23	23	28	28	28	28	28	28	28	28	24	24	24	24	25	25	25	25	25	25	25	25	21	21	21	21	24	24	24	24	20	20	20	20	26	26	26	26	26	26	26	26	18	18	18	18	20
0	0	0	0	0	0	0	0	0	0	0	0	0	0	0	0	0	0	0	0	0	0	0	0	0	0	0	0	0	0	0	0	0	0	0	0	0	0	0	0	0	0	0	0	0	0	0	0	0	0	0	0	0	0	0	0	0	0	0	0	0	0	0	0	0	0	0	0	0	0	0	0	0	0	0	0	0	0	0	0	0	0	0	0	0	0	0	0	0	0	0	0	0	0	0	0	0	0	0	0	0	0	0	0	0	0	0	0	0	0	0	0	0	0	0	0	0	0	0	0	0	0	0	6	6	6	6	19	19	19	19	28	28	28	28	34	34	34	34	32	32	32	32	32	32	32	32	0	0	0	0	0	0	0	0	0	0	0	0	0	0	0	0	0	0	0	0	0	0	0	0	0	0	0	0	0	0	0	0	0	0	0	0	0	0	0	0	0	0	0	0	0	0	0	0	0	0	0	0	0	0	0	0	0	0	0	0	0	0	0	0	4	4	4	4	2	2	2	2	1	1	1	1	0	0	0	0	5	5	5	5	8	8	8	8	6	6	6	6	3	3	3	3	0	0	0	0	6	6	6	6	8	8	8	8	8	8	8	8	8	8	8	8	9	9	9	9	9	9	9	9	10	10	10	10	11	11	11	11	13	13	13	13	12	12	12	12	15	15	15	15	12	12	12	12	12	12	12	12	13	13	13	13	13	13	13	13	12	12	12	12	12	12	12	12	12	12	12	12	12	12	12	12	13	13	13	13	7	7	7	7	10	10	10	10	17	17	17	17	20	20	20	20	18	18	18	18	24	24	24	24	23	23	23	23	28	28	28	28	28	28	28	28	24	24	24	24	25	25	25	25	25	25	25	25	21	21	21	21	24	24	24	24	20	20	20	20	26	26	26	26	26	26	26	26	18	18	18	18	20
0	0	0	0	0	0	0	0	0	0	0	0	0	0	0	0	0	0	0	0	0	0	0	0	0	0	0	0	0	0	0	0	0	0	0	0	0	0	0	0	0	0	0	0	0	0	0	0	0	0	0	0	0	0	0	0	0	0	0	0	0	0	0	0	0	0	0	0	0	0	0	0	0	0	0	0	0	0	0	0	0	0	0	0	0	0	0	0	0	0	0	0	0	0	0	0	0	0	0	0	0	0	0	0	0	0	0	0	0	0	0	0	0	0	0	0	0	0	0	0	0	0	0	6	6	6	6	19	19	19	19	28	28	28	28	34	34	34	34	32	32	32	32	32	32	32	32	0	0	0	0	0	0	0	0	0	0	0	0	0	0	0	0	0	0	0	0	0	0	0	0	0	0	0	0	0	0	0	0	0	0	0	0	0	0	0	0	0	0	0	0	0	0	0	0	0	0	0	0	0	0	0	0	0	0	0	0	0	0	0	0	4	4	4	4	2	2	2	2	1	1	1	1	0	0	0	0	5	5	5	5	8	8	8	8	6	6	6	6	3	3	3	3	0	0	0	0	6	6	6	6	8	8	8	8	8	8	8	8	8	8	8	8	9	9	9	9	9	9	9	9	10	10	10	10	11	11	11	11	13	13	13	13	12	12	12	12	15	15	15	15	12	12	12	12	12	12	12	12	13	13	13	13	13	13	13	13	12	12	12	12	12	12	12	12	12	12	12	12	12	12	12	12	13	13	13	13	7	7	7	7	10	10	10	10	17	17	17	17	20	20	20	20	18	18	18	18	24	24	24	24	23	23	23	23	28	28	28	28	28	28	28	28	24	24	24	24	25	25	25	25	25	25	25	25	21	21	21	21	24	24	24	24	20	20	20	20	26	26	26	26	26	26	26	26	18	18	18	18	20
0	0	0	0	0	0	0	0	0	0	0	0	0	0	0	0	0	0	0	0	0	0	0	0	0	0	0	0	0	0	0	0	0	0	0	0	0	0	0	0	0	0	0	0	0	0	0	0	0	0	0	0	0	0	0	0	0	0	0	0	0	0	0	0	0	0	0	0	0	0	0	0	0	0	0	0	0	0	0	0	0	0	0	0	0	0	0	0	0	0	0	0	0	0	0	0	0	0	0	0	0	0	0	0	0	0	0	0	0	0	0	0	0	0	0	0	0	0	0	0	0	0	0	5	5	5	5	12	12	12	12	22	22	22	22	30	30	30	30	32	32	32	32	27	27	27	27	25	25	25	25	12	12	12	12	12	12	12	12	3	3	3	3	0	0	0	0	0	0	0	0	0	0	0	0	0	0	0	0	0	0	0	0	0	0	0	0	0	0	0	0	0	0	0	0	0	0	0	0	5	5	5	5	7	7	7	7	8	8	8	8	5	5	5	5	4	4	4	4	4	4	4	4	5	5	5	5	10	10	10	10	11	11	11	11	13	13	13	13	3	3	3	3	1	1	1	1	1	1	1	1	5	5	5	5	6	6	6	6	5	5	5	5	8	8	8	8	8	8	8	8	8	8	8	8	9	9	9	9	11	11	11	11	13	13	13	13	13	13	13	13	12	12	12	12	14	14	14	14	12	12	12	12	10	10	10	10	15	15	15	15	12	12	12	12	12	12	12	12	14	14	14	14	12	12	12	12	10	10	10	10	10	10	10	10	16	16	16	16	18	18	18	18	21	21	21	21	24	24	24	24	23	23	23	23	28	28	28	28	27	27	27	27	28	28	28	28	27	27	27	27	31	31	31	31	27	27	27	27	27	27	27	27	26	26	26	26	25	25	25	25	21	21	21	21	20	20	20	20	26
0	0	0	0	0	0	0	0	0	0	0	0	0	0	0	0	0	0	0	0	0	0	0	0	0	0	0	0	0	0	0	0	0	0	0	0	0	0	0	0	0	0	0	0	0	0	0	0	0	0	0	0	0	0	0	0	0	0	0	0	0	0	0	0	0	0	0	0	0	0	0	0	0	0	0	0	0	0	0	0	0	0	0	0	0	0	0	0	0	0	0	0	0	0	0	0	0	0	0	0	0	0	0	0	0	0	0	0	0	0	0	0	0	0	0	0	0	0	0	0	0	0	0	5	5	5	5	12	12	12	12	22	22	22	22	30	30	30	30	32	32	32	32	27	27	27	27	25	25	25	25	12	12	12	12	12	12	12	12	3	3	3	3	0	0	0	0	0	0	0	0	0	0	0	0	0	0	0	0	0	0	0	0	0	0	0	0	0	0	0	0	0	0	0	0	0	0	0	0	5	5	5	5	7	7	7	7	8	8	8	8	5	5	5	5	4	4	4	4	4	4	4	4	5	5	5	5	10	10	10	10	11	11	11	11	13	13	13	13	3	3	3	3	1	1	1	1	1	1	1	1	5	5	5	5	6	6	6	6	5	5	5	5	8	8	8	8	8	8	8	8	8	8	8	8	9	9	9	9	11	11	11	11	13	13	13	13	13	13	13	13	12	12	12	12	14	14	14	14	12	12	12	12	10	10	10	10	15	15	15	15	12	12	12	12	12	12	12	12	14	14	14	14	12	12	12	12	10	10	10	10	10	10	10	10	16	16	16	16	18	18	18	18	21	21	21	21	24	24	24	24	23	23	23	23	28	28	28	28	27	27	27	27	28	28	28	28	27	27	27	27	31	31	31	31	27	27	27	27	27	27	27	27	26	26	26	26	25	25	25	25	21	21	21	21	20	20	20	20	26
0	0	0	0	0	0	0	0	0	0	0	0	0	0	0	0	0	0	0	0	0	0	0	0	0	0	0	0	0	0	0	0	0	0	0	0	0	0	0	0	0	0	0	0	0	0	0	0	0	0	0	0	0	0	0	0	0	0	0	0	0	0	0	0	0	0	0	0	0	0	0	0	0	0	0	0	0	0	0	0	0	0	0	0	0	0	0	0	0	0	0	0	0	0	0	0	0	0	0	0	0	0	0	0	0	0	0	0	0	0	0	0	0	0	0	0	0	0	0	0	0	0	0	5	5	5	5	12	12	12	12	22	22	22	22	30	30	30	30	32	32	32	32	27	27	27	27	25	25	25	25	12	12	12	12	12	12	12	12	3	3	3	3	0	0	0	0	0	0	0	0	0	0	0	0	0	0	0	0	0	0	0	0	0	0	0	0	0	0	0	0	0	0	0	0	0	0	0	0	5	5	5	5	7	7	7	7	8	8	8	8	5	5	5	5	4	4	4	4	4	4	4	4	5	5	5	5	10	10	10	10	11	11	11	11	13	13	13	13	3	3	3	3	1	1	1	1	1	1	1	1	5	5	5	5	6	6	6	6	5	5	5	5	8	8	8	8	8	8	8	8	8	8	8	8	9	9	9	9	11	11	11	11	13	13	13	13	13	13	13	13	12	12	12	12	14	14	14	14	12	12	12	12	10	10	10	10	15	15	15	15	12	12	12	12	12	12	12	12	14	14	14	14	12	12	12	12	10	10	10	10	10	10	10	10	16	16	16	16	18	18	18	18	21	21	21	21	24	24	24	24	23	23	23	23	28	28	28	28	27	27	27	27	28	28	28	28	27	27	27	27	31	31	31	31	27	27	27	27	27	27	27	27	26	26	26	26	25	25	25	25	21	21	21	21	20	20	20	20	26
0	0	0	0	0	0	0	0	0	0	0	0	0	0	0	0	0	0	0	0	0	0	0	0	0	0	0	0	0	0	0	0	0	0	0	0	0	0	0	0	0	0	0	0	0	0	0	0	0	0	0	0	0	0	0	0	0	0	0	0	0	0	0	0	0	0	0	0	0	0	0	0	0	0	0	0	0	0	0	0	0	0	0	0	0	0	0	0	0	0	0	0	0	0	0	0	0	0	0	0	0	0	0	0	0	0	0	0	0	0	0	0	0	0	0	0	0	0	0	0	0	0	0	5	5	5	5	12	12	12	12	22	22	22	22	30	30	30	30	32	32	32	32	27	27	27	27	25	25	25	25	12	12	12	12	12	12	12	12	3	3	3	3	0	0	0	0	0	0	0	0	0	0	0	0	0	0	0	0	0	0	0	0	0	0	0	0	0	0	0	0	0	0	0	0	0	0	0	0	5	5	5	5	7	7	7	7	8	8	8	8	5	5	5	5	4	4	4	4	4	4	4	4	5	5	5	5	10	10	10	10	11	11	11	11	13	13	13	13	3	3	3	3	1	1	1	1	1	1	1	1	5	5	5	5	6	6	6	6	5	5	5	5	8	8	8	8	8	8	8	8	8	8	8	8	9	9	9	9	11	11	11	11	13	13	13	13	13	13	13	13	12	12	12	12	14	14	14	14	12	12	12	12	10	10	10	10	15	15	15	15	12	12	12	12	12	12	12	12	14	14	14	14	12	12	12	12	10	10	10	10	10	10	10	10	16	16	16	16	18	18	18	18	21	21	21	21	24	24	24	24	23	23	23	23	28	28	28	28	27	27	27	27	28	28	28	28	27	27	27	27	31	31	31	31	27	27	27	27	27	27	27	27	26	26	26	26	25	25	25	25	21	21	21	21	20	20	20	20	26
0	0	0	0	0	0	0	0	0	0	0	0	0	0	0	0	0	0	0	0	0	0	0	0	0	0	0	0	0	0	0	0	0	0	0	0	0	0	0	0	0	0	0	0	0	0	0	0	0	0	0	0	0	0	0	0	0	0	0	0	0	0	0	0	0	0	0	0	0	0	0	0	0	0	0	0	0	0	0	0	0	0	0	0	0	0	0	0	0	0	0	0	0	0	0	0	0	0	0	0	0	0	0	0	0	0	0	0	0	0	0	0	0	0	0	0	0	0	0	0	0	0	0	0	0	0	0	13	13	13	13	27	27	27	27	31	31	31	31	28	28	28	28	20	20	20	20	12	12	12	12	10	10	10	10	6	6	6	6	1	1	1	1	0	0	0	0	0	0	0	0	0	0	0	0	0	0	0	0	0	0	0	0	0	0	0	0	0	0	0	0	0	0	0	0	0	0	0	0	3	3	3	3	5	5	5	5	8	8	8	8	6	6	6	6	7	7	7	7	6	6	6	6	8	8	8	8	13	13	13	13	12	12	12	12	10	10	10	10	4	4	4	4	1	1	1	1	1	1	1	1	4	4	4	4	3	3	3	3	3	3	3	3	3	3	3	3	3	3	3	3	5	5	5	5	5	5	5	5	8	8	8	8	9	9	9	9	8	8	8	8	13	13	13	13	14	14	14	14	13	13	13	13	13	13	13	13	15	15	15	15	14	14	14	14	15	15	15	15	16	16	16	16	15	15	15	15	13	13	13	13	10	10	10	10	9	9	9	9	17	17	17	17	22	22	22	22	25	25	25	25	28	28	28	28	27	27	27	27	31	31	31	31	27	27	27	27	31	31	31	31	32	32	32	32	30	30	30	30	31	31	31	31	27	27	27	27	28	28	28	28	27	27	27	27	21	21	21	21	24
0	0	0	0	0	0	0	0	0	0	0	0	0	0	0	0	0	0	0	0	0	0	0	0	0	0	0	0	0	0	0	0	0	0	0	0	0	0	0	0	0	0	0	0	0	0	0	0	0	0	0	0	0	0	0	0	0	0	0	0	0	0	0	0	0	0	0	0	0	0	0	0	0	0	0	0	0	0	0	0	0	0	0	0	0	0	0	0	0	0	0	0	0	0	0	0	0	0	0	0	0	0	0	0	0	0	0	0	0	0	0	0	0	0	0	0	0	0	0	0	0	0	0	0	0	0	0	13	13	13	13	27	27	27	27	31	31	31	31	28	28	28	28	20	20	20	20	12	12	12	12	10	10	10	10	6	6	6	6	1	1	1	1	0	0	0	0	0	0	0	0	0	0	0	0	0	0	0	0	0	0	0	0	0	0	0	0	0	0	0	0	0	0	0	0	0	0	0	0	3	3	3	3	5	5	5	5	8	8	8	8	6	6	6	6	7	7	7	7	6	6	6	6	8	8	8	8	13	13	13	13	12	12	12	12	10	10	10	10	4	4	4	4	1	1	1	1	1	1	1	1	4	4	4	4	3	3	3	3	3	3	3	3	3	3	3	3	3	3	3	3	5	5	5	5	5	5	5	5	8	8	8	8	9	9	9	9	8	8	8	8	13	13	13	13	14	14	14	14	13	13	13	13	13	13	13	13	15	15	15	15	14	14	14	14	15	15	15	15	16	16	16	16	15	15	15	15	13	13	13	13	10	10	10	10	9	9	9	9	17	17	17	17	22	22	22	22	25	25	25	25	28	28	28	28	27	27	27	27	31	31	31	31	27	27	27	27	31	31	31	31	32	32	32	32	30	30	30	30	31	31	31	31	27	27	27	27	28	28	28	28	27	27	27	27	21	21	21	21	24
0	0	0	0	0	0	0	0	0	0	0	0	0	0	0	0	0	0	0	0	0	0	0	0	0	0	0	0	0	0	0	0	0	0	0	0	0	0	0	0	0	0	0	0	0	0	0	0	0	0	0	0	0	0	0	0	0	0	0	0	0	0	0	0	0	0	0	0	0	0	0	0	0	0	0	0	0	0	0	0	0	0	0	0	0	0	0	0	0	0	0	0	0	0	0	0	0	0	0	0	0	0	0	0	0	0	0	0	0	0	0	0	0	0	0	0	0	0	0	0	0	0	0	0	0	0	0	13	13	13	13	27	27	27	27	31	31	31	31	28	28	28	28	20	20	20	20	12	12	12	12	10	10	10	10	6	6	6	6	1	1	1	1	0	0	0	0	0	0	0	0	0	0	0	0	0	0	0	0	0	0	0	0	0	0	0	0	0	0	0	0	0	0	0	0	0	0	0	0	3	3	3	3	5	5	5	5	8	8	8	8	6	6	6	6	7	7	7	7	6	6	6	6	8	8	8	8	13	13	13	13	12	12	12	12	10	10	10	10	4	4	4	4	1	1	1	1	1	1	1	1	4	4	4	4	3	3	3	3	3	3	3	3	3	3	3	3	3	3	3	3	5	5	5	5	5	5	5	5	8	8	8	8	9	9	9	9	8	8	8	8	13	13	13	13	14	14	14	14	13	13	13	13	13	13	13	13	15	15	15	15	14	14	14	14	15	15	15	15	16	16	16	16	15	15	15	15	13	13	13	13	10	10	10	10	9	9	9	9	17	17	17	17	22	22	22	22	25	25	25	25	28	28	28	28	27	27	27	27	31	31	31	31	27	27	27	27	31	31	31	31	32	32	32	32	30	30	30	30	31	31	31	31	27	27	27	27	28	28	28	28	27	27	27	27	21	21	21	21	24
0	0	0	0	0	0	0	0	0	0	0	0	0	0	0	0	0	0	0	0	0	0	0	0	0	0	0	0	0	0	0	0	0	0	0	0	0	0	0	0	0	0	0	0	0	0	0	0	0	0	0	0	0	0	0	0	0	0	0	0	0	0	0	0	0	0	0	0	0	0	0	0	0	0	0	0	0	0	0	0	0	0	0	0	0	0	0	0	0	0	0	0	0	0	0	0	0	0	0	0	0	0	0	0	0	0	0	0	0	0	0	0	0	0	0	0	0	0	0	0	0	0	0	0	0	0	0	13	13	13	13	27	27	27	27	31	31	31	31	28	28	28	28	20	20	20	20	12	12	12	12	10	10	10	10	6	6	6	6	1	1	1	1	0	0	0	0	0	0	0	0	0	0	0	0	0	0	0	0	0	0	0	0	0	0	0	0	0	0	0	0	0	0	0	0	0	0	0	0	3	3	3	3	5	5	5	5	8	8	8	8	6	6	6	6	7	7	7	7	6	6	6	6	8	8	8	8	13	13	13	13	12	12	12	12	10	10	10	10	4	4	4	4	1	1	1	1	1	1	1	1	4	4	4	4	3	3	3	3	3	3	3	3	3	3	3	3	3	3	3	3	5	5	5	5	5	5	5	5	8	8	8	8	9	9	9	9	8	8	8	8	13	13	13	13	14	14	14	14	13	13	13	13	13	13	13	13	15	15	15	15	14	14	14	14	15	15	15	15	16	16	16	16	15	15	15	15	13	13	13	13	10	10	10	10	9	9	9	9	17	17	17	17	22	22	22	22	25	25	25	25	28	28	28	28	27	27	27	27	31	31	31	31	27	27	27	27	31	31	31	31	32	32	32	32	30	30	30	30	31	31	31	31	27	27	27	27	28	28	28	28	27	27	27	27	21	21	21	21	24
0	0	0	0	0	0	0	0	0	0	0	0	0	0	0	0	0	0	0	0	0	0	0	0	0	0	0	0	0	0	0	0	0	0	0	0	0	0	0	0	0	0	0	0	0	0	0	0	0	0	0	0	0	0	0	0	0	0	0	0	0	0	0	0	0	0	0	0	0	0	0	0	0	0	0	0	0	0	0	0	0	0	0	0	0	0	0	0	0	0	0	0	0	0	0	0	0	0	0	0	0	0	0	0	0	0	0	0	0	0	0	0	0	0	0	0	0	0	0	0	0	0	0	0	0	0	0	8	8	8	8	30	30	30	30	30	30	30	30	27	27	27	27	18	18	18	18	22	22	22	22	16	16	16	16	15	15	15	15	4	4	4	4	0	0	0	0	0	0	0	0	0	0	0	0	0	0	0	0	0	0	0	0	0	0	0	0	0	0	0	0	0	0	0	0	2	2	2	2	2	2	2	2	3	3	3	3	3	3	3	3	3	3	3	3	5	5	5	5	5	5	5	5	7	7	7	7	13	13	13	13	12	12	12	12	9	9	9	9	3	3	3	3	1	1	1	1	1	1	1	1	1	1	1	1	1	1	1	1	1	1	1	1	2	2	2	2	3	3	3	3	3	3	3	3	6	6	6	6	9	9	9	9	10	10	10	10	10	10	10	10	13	13	13	13	12	12	12	12	13	13	13	13	13	13	13	13	12	12	12	12	17	17	17	17	16	16	16	16	16	16	16	16	17	17	17	17	15	15	15	15	12	12	12	12	7	7	7	7	13	13	13	13	14	14	14	14	21	21	21	21	25	25	25	25	28	28	28	28	27	27	27	27	27	27	27	27	27	27	27	27	30	30	30	30	34	34	34	34	38	38	38	38	33	33	33	33	32	32	32	32	31	31	31	31	29	29	29	29	24
0	0	0	0	0	0	0	0	0	0	0	0	0	0	0	0	0	0	0	0	0	0	0	0	0	0	0	0	0	0	0	0	0	0	0	0	0	0	0	0	0	0	0	0	0	0	0	0	0	0	0	0	0	0	0	0	0	0	0	0	0	0	0	0	0	0	0	0	0	0	0	0	0	0	0	0	0	0	0	0	0	0	0	0	0	0	0	0	0	0	0	0	0	0	0	0	0	0	0	0	0	0	0	0	0	0	0	0	0	0	0	0	0	0	0	0	0	0	0	0	0	0	0	0	0	0	0	8	8	8	8	30	30	30	30	30	30	30	30	27	27	27	27	18	18	18	18	22	22	22	22	16	16	16	16	15	15	15	15	4	4	4	4	0	0	0	0	0	0	0	0	0	0	0	0	0	0	0	0	0	0	0	0	0	0	0	0	0	0	0	0	0	0	0	0	2	2	2	2	2	2	2	2	3	3	3	3	3	3	3	3	3	3	3	3	5	5	5	5	5	5	5	5	7	7	7	7	13	13	13	13	12	12	12	12	9	9	9	9	3	3	3	3	1	1	1	1	1	1	1	1	1	1	1	1	1	1	1	1	1	1	1	1	2	2	2	2	3	3	3	3	3	3	3	3	6	6	6	6	9	9	9	9	10	10	10	10	10	10	10	10	13	13	13	13	12	12	12	12	13	13	13	13	13	13	13	13	12	12	12	12	17	17	17	17	16	16	16	16	16	16	16	16	17	17	17	17	15	15	15	15	12	12	12	12	7	7	7	7	13	13	13	13	14	14	14	14	21	21	21	21	25	25	25	25	28	28	28	28	27	27	27	27	27	27	27	27	27	27	27	27	30	30	30	30	34	34	34	34	38	38	38	38	33	33	33	33	32	32	32	32	31	31	31	31	29	29	29	29	24
0	0	0	0	0	0	0	0	0	0	0	0	0	0	0	0	0	0	0	0	0	0	0	0	0	0	0	0	0	0	0	0	0	0	0	0	0	0	0	0	0	0	0	0	0	0	0	0	0	0	0	0	0	0	0	0	0	0	0	0	0	0	0	0	0	0	0	0	0	0	0	0	0	0	0	0	0	0	0	0	0	0	0	0	0	0	0	0	0	0	0	0	0	0	0	0	0	0	0	0	0	0	0	0	0	0	0	0	0	0	0	0	0	0	0	0	0	0	0	0	0	0	0	0	0	0	0	8	8	8	8	30	30	30	30	30	30	30	30	27	27	27	27	18	18	18	18	22	22	22	22	16	16	16	16	15	15	15	15	4	4	4	4	0	0	0	0	0	0	0	0	0	0	0	0	0	0	0	0	0	0	0	0	0	0	0	0	0	0	0	0	0	0	0	0	2	2	2	2	2	2	2	2	3	3	3	3	3	3	3	3	3	3	3	3	5	5	5	5	5	5	5	5	7	7	7	7	13	13	13	13	12	12	12	12	9	9	9	9	3	3	3	3	1	1	1	1	1	1	1	1	1	1	1	1	1	1	1	1	1	1	1	1	2	2	2	2	3	3	3	3	3	3	3	3	6	6	6	6	9	9	9	9	10	10	10	10	10	10	10	10	13	13	13	13	12	12	12	12	13	13	13	13	13	13	13	13	12	12	12	12	17	17	17	17	16	16	16	16	16	16	16	16	17	17	17	17	15	15	15	15	12	12	12	12	7	7	7	7	13	13	13	13	14	14	14	14	21	21	21	21	25	25	25	25	28	28	28	28	27	27	27	27	27	27	27	27	27	27	27	27	30	30	30	30	34	34	34	34	38	38	38	38	33	33	33	33	32	32	32	32	31	31	31	31	29	29	29	29	24
0	0	0	0	0	0	0	0	0	0	0	0	0	0	0	0	0	0	0	0	0	0	0	0	0	0	0	0	0	0	0	0	0	0	0	0	0	0	0	0	0	0	0	0	0	0	0	0	0	0	0	0	0	0	0	0	0	0	0	0	0	0	0	0	0	0	0	0	0	0	0	0	0	0	0	0	0	0	0	0	0	0	0	0	0	0	0	0	0	0	0	0	0	0	0	0	0	0	0	0	0	0	0	0	0	0	0	0	0	0	0	0	0	0	0	0	0	0	0	0	0	0	0	0	0	0	0	8	8	8	8	30	30	30	30	30	30	30	30	27	27	27	27	18	18	18	18	22	22	22	22	16	16	16	16	15	15	15	15	4	4	4	4	0	0	0	0	0	0	0	0	0	0	0	0	0	0	0	0	0	0	0	0	0	0	0	0	0	0	0	0	0	0	0	0	2	2	2	2	2	2	2	2	3	3	3	3	3	3	3	3	3	3	3	3	5	5	5	5	5	5	5	5	7	7	7	7	13	13	13	13	12	12	12	12	9	9	9	9	3	3	3	3	1	1	1	1	1	1	1	1	1	1	1	1	1	1	1	1	1	1	1	1	2	2	2	2	3	3	3	3	3	3	3	3	6	6	6	6	9	9	9	9	10	10	10	10	10	10	10	10	13	13	13	13	12	12	12	12	13	13	13	13	13	13	13	13	12	12	12	12	17	17	17	17	16	16	16	16	16	16	16	16	17	17	17	17	15	15	15	15	12	12	12	12	7	7	7	7	13	13	13	13	14	14	14	14	21	21	21	21	25	25	25	25	28	28	28	28	27	27	27	27	27	27	27	27	27	27	27	27	30	30	30	30	34	34	34	34	38	38	38	38	33	33	33	33	32	32	32	32	31	31	31	31	29	29	29	29	24
0	0	0	0	0	0	0	0	0	0	0	0	0	0	0	0	0	0	0	0	0	0	0	0	0	0	0	0	0	0	0	0	0	0	0	0	0	0	0	0	0	0	0	0	0	0	0	0	0	0	0	0	0	0	0	0	0	0	0	0	0	0	0	0	0	0	0	0	0	0	0	0	0	0	0	0	0	0	0	0	0	0	0	0	0	0	0	0	0	0	0	0	0	0	0	0	0	0	0	0	0	0	0	0	0	0	0	0	0	0	0	0	0	0	0	0	0	0	0	0	0	0	0	0	0	0	0	9	9	9	9	22	22	22	22	25	25	25	25	20	20	20	20	14	14	14	14	12	12	12	12	13	13	13	13	10	10	10	10	3	3	3	3	0	0	0	0	0	0	0	0	0	0	0	0	0	0	0	0	0	0	0	0	0	0	0	0	0	0	0	0	0	0	0	0	0	0	0	0	0	0	0	0	0	0	0	0	0	0	0	0	0	0	0	0	1	1	1	1	3	3	3	3	7	7	7	7	11	11	11	11	12	12	12	12	13	13	13	13	5	5	5	5	2	2	2	2	1	1	1	1	2	2	2	2	3	3	3	3	4	4	4	4	3	3	3	3	5	5	5	5	7	7	7	7	6	6	6	6	9	9	9	9	10	10	10	10	13	13	13	13	12	12	12	12	12	12	12	12	12	12	12	12	12	12	12	12	17	17	17	17	17	17	17	17	16	16	16	16	19	19	19	19	16	16	16	16	17	17	17	17	12	12	12	12	9	9	9	9	12	12	12	12	11	11	11	11	14	14	14	14	22	22	22	22	20	20	20	20	26	26	26	26	28	28	28	28	27	27	27	27	31	31	31	31	32	32	32	32	38	38	38	38	40	40	40	40	39	39	39	39	30	30	30	30	28	28	28	28	21
0	0	0	0	0	0	0	0	0	0	0	0	0	0	0	0	0	0	0	0	0	0	0	0	0	0	0	0	0	0	0	0	0	0	0	0	0	0	0	0	0	0	0	0	0	0	0	0	0	0	0	0	0	0	0	0	0	0	0	0	0	0	0	0	0	0	0	0	0	0	0	0	0	0	0	0	0	0	0	0	0	0	0	0	0	0	0	0	0	0	0	0	0	0	0	0	0	0	0	0	0	0	0	0	0	0	0	0	0	0	0	0	0	0	0	0	0	0	0	0	0	0	0	0	0	0	0	9	9	9	9	22	22	22	22	25	25	25	25	20	20	20	20	14	14	14	14	12	12	12	12	13	13	13	13	10	10	10	10	3	3	3	3	0	0	0	0	0	0	0	0	0	0	0	0	0	0	0	0	0	0	0	0	0	0	0	0	0	0	0	0	0	0	0	0	0	0	0	0	0	0	0	0	0	0	0	0	0	0	0	0	0	0	0	0	1	1	1	1	3	3	3	3	7	7	7	7	11	11	11	11	12	12	12	12	13	13	13	13	5	5	5	5	2	2	2	2	1	1	1	1	2	2	2	2	3	3	3	3	4	4	4	4	3	3	3	3	5	5	5	5	7	7	7	7	6	6	6	6	9	9	9	9	10	10	10	10	13	13	13	13	12	12	12	12	12	12	12	12	12	12	12	12	12	12	12	12	17	17	17	17	17	17	17	17	16	16	16	16	19	19	19	19	16	16	16	16	17	17	17	17	12	12	12	12	9	9	9	9	12	12	12	12	11	11	11	11	14	14	14	14	22	22	22	22	20	20	20	20	26	26	26	26	28	28	28	28	27	27	27	27	31	31	31	31	32	32	32	32	38	38	38	38	40	40	40	40	39	39	39	39	30	30	30	30	28	28	28	28	21
0	0	0	0	0	0	0	0	0	0	0	0	0	0	0	0	0	0	0	0	0	0	0	0	0	0	0	0	0	0	0	0	0	0	0	0	0	0	0	0	0	0	0	0	0	0	0	0	0	0	0	0	0	0	0	0	0	0	0	0	0	0	0	0	0	0	0	0	0	0	0	0	0	0	0	0	0	0	0	0	0	0	0	0	0	0	0	0	0	0	0	0	0	0	0	0	0	0	0	0	0	0	0	0	0	0	0	0	0	0	0	0	0	0	0	0	0	0	0	0	0	0	0	0	0	0	0	9	9	9	9	22	22	22	22	25	25	25	25	20	20	20	20	14	14	14	14	12	12	12	12	13	13	13	13	10	10	10	10	3	3	3	3	0	0	0	0	0	0	0	0	0	0	0	0	0	0	0	0	0	0	0	0	0	0	0	0	0	0	0	0	0	0	0	0	0	0	0	0	0	0	0	0	0	0	0	0	0	0	0	0	0	0	0	0	1	1	1	1	3	3	3	3	7	7	7	7	11	11	11	11	12	12	12	12	13	13	13	13	5	5	5	5	2	2	2	2	1	1	1	1	2	2	2	2	3	3	3	3	4	4	4	4	3	3	3	3	5	5	5	5	7	7	7	7	6	6	6	6	9	9	9	9	10	10	10	10	13	13	13	13	12	12	12	12	12	12	12	12	12	12	12	12	12	12	12	12	17	17	17	17	17	17	17	17	16	16	16	16	19	19	19	19	16	16	16	16	17	17	17	17	12	12	12	12	9	9	9	9	12	12	12	12	11	11	11	11	14	14	14	14	22	22	22	22	20	20	20	20	26	26	26	26	28	28	28	28	27	27	27	27	31	31	31	31	32	32	32	32	38	38	38	38	40	40	40	40	39	39	39	39	30	30	30	30	28	28	28	28	21
0	0	0	0	0	0	0	0	0	0	0	0	0	0	0	0	0	0	0	0	0	0	0	0	0	0	0	0	0	0	0	0	0	0	0	0	0	0	0	0	0	0	0	0	0	0	0	0	0	0	0	0	0	0	0	0	0	0	0	0	0	0	0	0	0	0	0	0	0	0	0	0	0	0	0	0	0	0	0	0	0	0	0	0	0	0	0	0	0	0	0	0	0	0	0	0	0	0	0	0	0	0	0	0	0	0	0	0	0	0	0	0	0	0	0	0	0	0	0	0	0	0	0	0	0	0	0	9	9	9	9	22	22	22	22	25	25	25	25	20	20	20	20	14	14	14	14	12	12	12	12	13	13	13	13	10	10	10	10	3	3	3	3	0	0	0	0	0	0	0	0	0	0	0	0	0	0	0	0	0	0	0	0	0	0	0	0	0	0	0	0	0	0	0	0	0	0	0	0	0	0	0	0	0	0	0	0	0	0	0	0	0	0	0	0	1	1	1	1	3	3	3	3	7	7	7	7	11	11	11	11	12	12	12	12	13	13	13	13	5	5	5	5	2	2	2	2	1	1	1	1	2	2	2	2	3	3	3	3	4	4	4	4	3	3	3	3	5	5	5	5	7	7	7	7	6	6	6	6	9	9	9	9	10	10	10	10	13	13	13	13	12	12	12	12	12	12	12	12	12	12	12	12	12	12	12	12	17	17	17	17	17	17	17	17	16	16	16	16	19	19	19	19	16	16	16	16	17	17	17	17	12	12	12	12	9	9	9	9	12	12	12	12	11	11	11	11	14	14	14	14	22	22	22	22	20	20	20	20	26	26	26	26	28	28	28	28	27	27	27	27	31	31	31	31	32	32	32	32	38	38	38	38	40	40	40	40	39	39	39	39	30	30	30	30	28	28	28	28	21
0	0	0	0	0	0	0	0	0	0	0	0	0	0	0	0	0	0	0	0	0	0	0	0	0	0	0	0	0	0	0	0	0	0	0	0	0	0	0	0	0	0	0	0	0	0	0	0	0	0	0	0	0	0	0	0	0	0	0	0	0	0	0	0	0	0	0	0	0	0	0	0	0	0	0	0	0	0	0	0	0	0	0	0	0	0	0	0	0	0	0	0	0	0	0	0	0	0	0	0	0	0	0	0	0	0	0	0	0	0	0	0	0	0	0	0	0	0	0	0	0	0	0	0	0	0	0	8	8	8	8	26	26	26	26	27	27	27	27	21	21	21	21	17	17	17	17	12	12	12	12	8	8	8	8	3	3	3	3	2	2	2	2	2	2	2	2	0	0	0	0	0	0	0	0	0	0	0	0	0	0	0	0	0	0	0	0	0	0	0	0	3	3	3	3	0	0	0	0	0	0	0	0	0	0	0	0	0	0	0	0	2	2	2	2	0	0	0	0	0	0	0	0	5	5	5	5	10	10	10	10	14	14	14	14	14	14	14	14	9	9	9	9	3	3	3	3	1	1	1	1	3	3	3	3	6	6	6	6	3	3	3	3	5	5	5	5	8	8	8	8	8	8	8	8	3	3	3	3	8	8	8	8	10	10	10	10	12	12	12	12	14	14	14	14	15	15	15	15	12	12	12	12	12	12	12	12	17	17	17	17	16	16	16	16	16	16	16	16	20	20	20	20	20	20	20	20	16	16	16	16	15	15	15	15	13	13	13	13	19	19	19	19	17	17	17	17	15	15	15	15	16	16	16	16	16	16	16	16	22	22	22	22	29	29	29	29	31	31	31	31	30	30	30	30	32	32	32	32	32	32	32	32	39	39	39	39	38	38	38	38	34	34	34	34	30	30	30	30	30
0	0	0	0	0	0	0	0	0	0	0	0	0	0	0	0	0	0	0	0	0	0	0	0	0	0	0	0	0	0	0	0	0	0	0	0	0	0	0	0	0	0	0	0	0	0	0	0	0	0	0	0	0	0	0	0	0	0	0	0	0	0	0	0	0	0	0	0	0	0	0	0	0	0	0	0	0	0	0	0	0	0	0	0	0	0	0	0	0	0	0	0	0	0	0	0	0	0	0	0	0	0	0	0	0	0	0	0	0	0	0	0	0	0	0	0	0	0	0	0	0	0	0	0	0	0	0	8	8	8	8	26	26	26	26	27	27	27	27	21	21	21	21	17	17	17	17	12	12	12	12	8	8	8	8	3	3	3	3	2	2	2	2	2	2	2	2	0	0	0	0	0	0	0	0	0	0	0	0	0	0	0	0	0	0	0	0	0	0	0	0	3	3	3	3	0	0	0	0	0	0	0	0	0	0	0	0	0	0	0	0	2	2	2	2	0	0	0	0	0	0	0	0	5	5	5	5	10	10	10	10	14	14	14	14	14	14	14	14	9	9	9	9	3	3	3	3	1	1	1	1	3	3	3	3	6	6	6	6	3	3	3	3	5	5	5	5	8	8	8	8	8	8	8	8	3	3	3	3	8	8	8	8	10	10	10	10	12	12	12	12	14	14	14	14	15	15	15	15	12	12	12	12	12	12	12	12	17	17	17	17	16	16	16	16	16	16	16	16	20	20	20	20	20	20	20	20	16	16	16	16	15	15	15	15	13	13	13	13	19	19	19	19	17	17	17	17	15	15	15	15	16	16	16	16	16	16	16	16	22	22	22	22	29	29	29	29	31	31	31	31	30	30	30	30	32	32	32	32	32	32	32	32	39	39	39	39	38	38	38	38	34	34	34	34	30	30	30	30	30
0	0	0	0	0	0	0	0	0	0	0	0	0	0	0	0	0	0	0	0	0	0	0	0	0	0	0	0	0	0	0	0	0	0	0	0	0	0	0	0	0	0	0	0	0	0	0	0	0	0	0	0	0	0	0	0	0	0	0	0	0	0	0	0	0	0	0	0	0	0	0	0	0	0	0	0	0	0	0	0	0	0	0	0	0	0	0	0	0	0	0	0	0	0	0	0	0	0	0	0	0	0	0	0	0	0	0	0	0	0	0	0	0	0	0	0	0	0	0	0	0	0	0	0	0	0	0	8	8	8	8	26	26	26	26	27	27	27	27	21	21	21	21	17	17	17	17	12	12	12	12	8	8	8	8	3	3	3	3	2	2	2	2	2	2	2	2	0	0	0	0	0	0	0	0	0	0	0	0	0	0	0	0	0	0	0	0	0	0	0	0	3	3	3	3	0	0	0	0	0	0	0	0	0	0	0	0	0	0	0	0	2	2	2	2	0	0	0	0	0	0	0	0	5	5	5	5	10	10	10	10	14	14	14	14	14	14	14	14	9	9	9	9	3	3	3	3	1	1	1	1	3	3	3	3	6	6	6	6	3	3	3	3	5	5	5	5	8	8	8	8	8	8	8	8	3	3	3	3	8	8	8	8	10	10	10	10	12	12	12	12	14	14	14	14	15	15	15	15	12	12	12	12	12	12	12	12	17	17	17	17	16	16	16	16	16	16	16	16	20	20	20	20	20	20	20	20	16	16	16	16	15	15	15	15	13	13	13	13	19	19	19	19	17	17	17	17	15	15	15	15	16	16	16	16	16	16	16	16	22	22	22	22	29	29	29	29	31	31	31	31	30	30	30	30	32	32	32	32	32	32	32	32	39	39	39	39	38	38	38	38	34	34	34	34	30	30	30	30	30
0	0	0	0	0	0	0	0	0	0	0	0	0	0	0	0	0	0	0	0	0	0	0	0	0	0	0	0	0	0	0	0	0	0	0	0	0	0	0	0	0	0	0	0	0	0	0	0	0	0	0	0	0	0	0	0	0	0	0	0	0	0	0	0	0	0	0	0	0	0	0	0	0	0	0	0	0	0	0	0	0	0	0	0	0	0	0	0	0	0	0	0	0	0	0	0	0	0	0	0	0	0	0	0	0	0	0	0	0	0	0	0	0	0	0	0	0	0	0	0	0	0	0	0	0	0	0	8	8	8	8	26	26	26	26	27	27	27	27	21	21	21	21	17	17	17	17	12	12	12	12	8	8	8	8	3	3	3	3	2	2	2	2	2	2	2	2	0	0	0	0	0	0	0	0	0	0	0	0	0	0	0	0	0	0	0	0	0	0	0	0	3	3	3	3	0	0	0	0	0	0	0	0	0	0	0	0	0	0	0	0	2	2	2	2	0	0	0	0	0	0	0	0	5	5	5	5	10	10	10	10	14	14	14	14	14	14	14	14	9	9	9	9	3	3	3	3	1	1	1	1	3	3	3	3	6	6	6	6	3	3	3	3	5	5	5	5	8	8	8	8	8	8	8	8	3	3	3	3	8	8	8	8	10	10	10	10	12	12	12	12	14	14	14	14	15	15	15	15	12	12	12	12	12	12	12	12	17	17	17	17	16	16	16	16	16	16	16	16	20	20	20	20	20	20	20	20	16	16	16	16	15	15	15	15	13	13	13	13	19	19	19	19	17	17	17	17	15	15	15	15	16	16	16	16	16	16	16	16	22	22	22	22	29	29	29	29	31	31	31	31	30	30	30	30	32	32	32	32	32	32	32	32	39	39	39	39	38	38	38	38	34	34	34	34	30	30	30	30	30
0	0	0	0	0	0	0	0	0	0	0	0	0	0	0	0	0	0	0	0	0	0	0	0	0	0	0	0	0	0	0	0	0	0	0	0	0	0	0	0	0	0	0	0	0	0	0	0	0	0	0	0	0	0	0	0	0	0	0	0	0	0	0	0	0	0	0	0	0	0	0	0	0	0	0	0	0	0	0	0	0	0	0	0	0	0	0	0	0	0	0	0	0	0	0	0	0	0	0	0	0	0	0	0	0	0	0	0	0	0	0	0	0	0	0	0	0	0	0	0	0	0	0	0	0	0	0	0	0	0	0	26	26	26	26	25	25	25	25	22	22	22	22	16	16	16	16	17	17	17	17	10	10	10	10	9	9	9	9	7	7	7	7	0	0	0	0	3	3	3	3	0	0	0	0	0	0	0	0	0	0	0	0	9	9	9	9	8	8	8	8	3	3	3	3	1	1	1	1	0	0	0	0	0	0	0	0	3	3	3	3	3	3	3	3	0	0	0	0	3	3	3	3	3	3	3	3	10	10	10	10	17	17	17	17	12	12	12	12	9	9	9	9	3	3	3	3	4	4	4	4	3	3	3	3	5	5	5	5	5	5	5	5	8	8	8	8	9	9	9	9	9	9	9	9	8	8	8	8	8	8	8	8	11	11	11	11	12	12	12	12	14	14	14	14	16	16	16	16	14	14	14	14	12	12	12	12	17	17	17	17	19	19	19	19	18	18	18	18	22	22	22	22	21	21	21	21	19	19	19	19	17	17	17	17	13	13	13	13	16	16	16	16	23	23	23	23	18	18	18	18	17	17	17	17	12	12	12	12	16	16	16	16	20	20	20	20	23	23	23	23	27	27	27	27	27	27	27	27	27	27	27	27	30	30	30	30	30	30	30	30	38	38	38	38	38	38	38	38	38
0	0	0	0	0	0	0	0	0	0	0	0	0	0	0	0	0	0	0	0	0	0	0	0	0	0	0	0	0	0	0	0	0	0	0	0	0	0	0	0	0	0	0	0	0	0	0	0	0	0	0	0	0	0	0	0	0	0	0	0	0	0	0	0	0	0	0	0	0	0	0	0	0	0	0	0	0	0	0	0	0	0	0	0	0	0	0	0	0	0	0	0	0	0	0	0	0	0	0	0	0	0	0	0	0	0	0	0	0	0	0	0	0	0	0	0	0	0	0	0	0	0	0	0	0	0	0	0	0	0	0	26	26	26	26	25	25	25	25	22	22	22	22	16	16	16	16	17	17	17	17	10	10	10	10	9	9	9	9	7	7	7	7	0	0	0	0	3	3	3	3	0	0	0	0	0	0	0	0	0	0	0	0	9	9	9	9	8	8	8	8	3	3	3	3	1	1	1	1	0	0	0	0	0	0	0	0	3	3	3	3	3	3	3	3	0	0	0	0	3	3	3	3	3	3	3	3	10	10	10	10	17	17	17	17	12	12	12	12	9	9	9	9	3	3	3	3	4	4	4	4	3	3	3	3	5	5	5	5	5	5	5	5	8	8	8	8	9	9	9	9	9	9	9	9	8	8	8	8	8	8	8	8	11	11	11	11	12	12	12	12	14	14	14	14	16	16	16	16	14	14	14	14	12	12	12	12	17	17	17	17	19	19	19	19	18	18	18	18	22	22	22	22	21	21	21	21	19	19	19	19	17	17	17	17	13	13	13	13	16	16	16	16	23	23	23	23	18	18	18	18	17	17	17	17	12	12	12	12	16	16	16	16	20	20	20	20	23	23	23	23	27	27	27	27	27	27	27	27	27	27	27	27	30	30	30	30	30	30	30	30	38	38	38	38	38	38	38	38	38
0	0	0	0	0	0	0	0	0	0	0	0	0	0	0	0	0	0	0	0	0	0	0	0	0	0	0	0	0	0	0	0	0	0	0	0	0	0	0	0	0	0	0	0	0	0	0	0	0	0	0	0	0	0	0	0	0	0	0	0	0	0	0	0	0	0	0	0	0	0	0	0	0	0	0	0	0	0	0	0	0	0	0	0	0	0	0	0	0	0	0	0	0	0	0	0	0	0	0	0	0	0	0	0	0	0	0	0	0	0	0	0	0	0	0	0	0	0	0	0	0	0	0	0	0	0	0	0	0	0	0	26	26	26	26	25	25	25	25	22	22	22	22	16	16	16	16	17	17	17	17	10	10	10	10	9	9	9	9	7	7	7	7	0	0	0	0	3	3	3	3	0	0	0	0	0	0	0	0	0	0	0	0	9	9	9	9	8	8	8	8	3	3	3	3	1	1	1	1	0	0	0	0	0	0	0	0	3	3	3	3	3	3	3	3	0	0	0	0	3	3	3	3	3	3	3	3	10	10	10	10	17	17	17	17	12	12	12	12	9	9	9	9	3	3	3	3	4	4	4	4	3	3	3	3	5	5	5	5	5	5	5	5	8	8	8	8	9	9	9	9	9	9	9	9	8	8	8	8	8	8	8	8	11	11	11	11	12	12	12	12	14	14	14	14	16	16	16	16	14	14	14	14	12	12	12	12	17	17	17	17	19	19	19	19	18	18	18	18	22	22	22	22	21	21	21	21	19	19	19	19	17	17	17	17	13	13	13	13	16	16	16	16	23	23	23	23	18	18	18	18	17	17	17	17	12	12	12	12	16	16	16	16	20	20	20	20	23	23	23	23	27	27	27	27	27	27	27	27	27	27	27	27	30	30	30	30	30	30	30	30	38	38	38	38	38	38	38	38	38
0	0	0	0	0	0	0	0	0	0	0	0	0	0	0	0	0	0	0	0	0	0	0	0	0	0	0	0	0	0	0	0	0	0	0	0	0	0	0	0	0	0	0	0	0	0	0	0	0	0	0	0	0	0	0	0	0	0	0	0	0	0	0	0	0	0	0	0	0	0	0	0	0	0	0	0	0	0	0	0	0	0	0	0	0	0	0	0	0	0	0	0	0	0	0	0	0	0	0	0	0	0	0	0	0	0	0	0	0	0	0	0	0	0	0	0	0	0	0	0	0	0	0	0	0	0	0	0	0	0	0	26	26	26	26	25	25	25	25	22	22	22	22	16	16	16	16	17	17	17	17	10	10	10	10	9	9	9	9	7	7	7	7	0	0	0	0	3	3	3	3	0	0	0	0	0	0	0	0	0	0	0	0	9	9	9	9	8	8	8	8	3	3	3	3	1	1	1	1	0	0	0	0	0	0	0	0	3	3	3	3	3	3	3	3	0	0	0	0	3	3	3	3	3	3	3	3	10	10	10	10	17	17	17	17	12	12	12	12	9	9	9	9	3	3	3	3	4	4	4	4	3	3	3	3	5	5	5	5	5	5	5	5	8	8	8	8	9	9	9	9	9	9	9	9	8	8	8	8	8	8	8	8	11	11	11	11	12	12	12	12	14	14	14	14	16	16	16	16	14	14	14	14	12	12	12	12	17	17	17	17	19	19	19	19	18	18	18	18	22	22	22	22	21	21	21	21	19	19	19	19	17	17	17	17	13	13	13	13	16	16	16	16	23	23	23	23	18	18	18	18	17	17	17	17	12	12	12	12	16	16	16	16	20	20	20	20	23	23	23	23	27	27	27	27	27	27	27	27	27	27	27	27	30	30	30	30	30	30	30	30	38	38	38	38	38	38	38	38	38
0	0	0	0	0	0	0	0	0	0	0	0	0	0	0	0	0	0	0	0	0	0	0	0	0	0	0	0	0	0	0	0	0	0	0	0	0	0	0	0	0	0	0	0	0	0	0	0	0	0	0	0	0	0	0	0	0	0	0	0	0	0	0	0	0	0	0	0	0	0	0	0	0	0	0	0	0	0	0	0	0	0	0	0	0	0	0	0	0	0	0	0	0	0	0	0	0	0	0	0	0	0	0	0	0	0	0	0	0	0	0	0	0	0	0	0	0	0	0	0	0	0	0	0	0	0	0	0	0	0	0	21	21	21	21	23	23	23	23	22	22	22	22	16	16	16	16	14	14	14	14	13	13	13	13	12	12	12	12	13	13	13	13	3	3	3	3	0	0	0	0	6	6	6	6	0	0	0	0	0	0	0	0	12	12	12	12	9	9	9	9	3	3	3	3	3	3	3	3	3	3	3	3	0	0	0	0	7	7	7	7	5	5	5	5	3	3	3	3	5	5	5	5	3	3	3	3	10	10	10	10	12	12	12	12	11	11	11	11	8	8	8	8	5	5	5	5	4	4	4	4	3	3	3	3	6	6	6	6	7	7	7	7	8	8	8	8	10	10	10	10	10	10	10	10	9	9	9	9	9	9	9	9	10	10	10	10	13	13	13	13	12	12	12	12	17	17	17	17	17	17	17	17	14	14	14	14	17	17	17	17	18	18	18	18	22	22	22	22	21	21	21	21	21	21	21	21	20	20	20	20	19	19	19	19	15	15	15	15	12	12	12	12	20	20	20	20	24	24	24	24	21	21	21	21	16	16	16	16	14	14	14	14	12	12	12	12	17	17	17	17	19	19	19	19	20	20	20	20	27	27	27	27	31	31	31	31	28	28	28	28	30	30	30	30	37	37	37	37	38
0	0	0	0	0	0	0	0	0	0	0	0	0	0	0	0	0	0	0	0	0	0	0	0	0	0	0	0	0	0	0	0	0	0	0	0	0	0	0	0	0	0	0	0	0	0	0	0	0	0	0	0	0	0	0	0	0	0	0	0	0	0	0	0	0	0	0	0	0	0	0	0	0	0	0	0	0	0	0	0	0	0	0	0	0	0	0	0	0	0	0	0	0	0	0	0	0	0	0	0	0	0	0	0	0	0	0	0	0	0	0	0	0	0	0	0	0	0	0	0	0	0	0	0	0	0	0	0	0	0	0	21	21	21	21	23	23	23	23	22	22	22	22	16	16	16	16	14	14	14	14	13	13	13	13	12	12	12	12	13	13	13	13	3	3	3	3	0	0	0	0	6	6	6	6	0	0	0	0	0	0	0	0	12	12	12	12	9	9	9	9	3	3	3	3	3	3	3	3	3	3	3	3	0	0	0	0	7	7	7	7	5	5	5	5	3	3	3	3	5	5	5	5	3	3	3	3	10	10	10	10	12	12	12	12	11	11	11	11	8	8	8	8	5	5	5	5	4	4	4	4	3	3	3	3	6	6	6	6	7	7	7	7	8	8	8	8	10	10	10	10	10	10	10	10	9	9	9	9	9	9	9	9	10	10	10	10	13	13	13	13	12	12	12	12	17	17	17	17	17	17	17	17	14	14	14	14	17	17	17	17	18	18	18	18	22	22	22	22	21	21	21	21	21	21	21	21	20	20	20	20	19	19	19	19	15	15	15	15	12	12	12	12	20	20	20	20	24	24	24	24	21	21	21	21	16	16	16	16	14	14	14	14	12	12	12	12	17	17	17	17	19	19	19	19	20	20	20	20	27	27	27	27	31	31	31	31	28	28	28	28	30	30	30	30	37	37	37	37	38
0	0	0	0	0	0	0	0	0	0	0	0	0	0	0	0	0	0	0	0	0	0	0	0	0	0	0	0	0	0	0	0	0	0	0	0	0	0	0	0	0	0	0	0	0	0	0	0	0	0	0	0	0	0	0	0	0	0	0	0	0	0	0	0	0	0	0	0	0	0	0	0	0	0	0	0	0	0	0	0	0	0	0	0	0	0	0	0	0	0	0	0	0	0	0	0	0	0	0	0	0	0	0	0	0	0	0	0	0	0	0	0	0	0	0	0	0	0	0	0	0	0	0	0	0	0	0	0	0	0	0	21	21	21	21	23	23	23	23	22	22	22	22	16	16	16	16	14	14	14	14	13	13	13	13	12	12	12	12	13	13	13	13	3	3	3	3	0	0	0	0	6	6	6	6	0	0	0	0	0	0	0	0	12	12	12	12	9	9	9	9	3	3	3	3	3	3	3	3	3	3	3	3	0	0	0	0	7	7	7	7	5	5	5	5	3	3	3	3	5	5	5	5	3	3	3	3	10	10	10	10	12	12	12	12	11	11	11	11	8	8	8	8	5	5	5	5	4	4	4	4	3	3	3	3	6	6	6	6	7	7	7	7	8	8	8	8	10	10	10	10	10	10	10	10	9	9	9	9	9	9	9	9	10	10	10	10	13	13	13	13	12	12	12	12	17	17	17	17	17	17	17	17	14	14	14	14	17	17	17	17	18	18	18	18	22	22	22	22	21	21	21	21	21	21	21	21	20	20	20	20	19	19	19	19	15	15	15	15	12	12	12	12	20	20	20	20	24	24	24	24	21	21	21	21	16	16	16	16	14	14	14	14	12	12	12	12	17	17	17	17	19	19	19	19	20	20	20	20	27	27	27	27	31	31	31	31	28	28	28	28	30	30	30	30	37	37	37	37	38
0	0	0	0	0	0	0	0	0	0	0	0	0	0	0	0	0	0	0	0	0	0	0	0	0	0	0	0	0	0	0	0	0	0	0	0	0	0	0	0	0	0	0	0	0	0	0	0	0	0	0	0	0	0	0	0	0	0	0	0	0	0	0	0	0	0	0	0	0	0	0	0	0	0	0	0	0	0	0	0	0	0	0	0	0	0	0	0	0	0	0	0	0	0	0	0	0	0	0	0	0	0	0	0	0	0	0	0	0	0	0	0	0	0	0	0	0	0	0	0	0	0	0	0	0	0	0	0	0	0	0	21	21	21	21	23	23	23	23	22	22	22	22	16	16	16	16	14	14	14	14	13	13	13	13	12	12	12	12	13	13	13	13	3	3	3	3	0	0	0	0	6	6	6	6	0	0	0	0	0	0	0	0	12	12	12	12	9	9	9	9	3	3	3	3	3	3	3	3	3	3	3	3	0	0	0	0	7	7	7	7	5	5	5	5	3	3	3	3	5	5	5	5	3	3	3	3	10	10	10	10	12	12	12	12	11	11	11	11	8	8	8	8	5	5	5	5	4	4	4	4	3	3	3	3	6	6	6	6	7	7	7	7	8	8	8	8	10	10	10	10	10	10	10	10	9	9	9	9	9	9	9	9	10	10	10	10	13	13	13	13	12	12	12	12	17	17	17	17	17	17	17	17	14	14	14	14	17	17	17	17	18	18	18	18	22	22	22	22	21	21	21	21	21	21	21	21	20	20	20	20	19	19	19	19	15	15	15	15	12	12	12	12	20	20	20	20	24	24	24	24	21	21	21	21	16	16	16	16	14	14	14	14	12	12	12	12	17	17	17	17	19	19	19	19	20	20	20	20	27	27	27	27	31	31	31	31	28	28	28	28	30	30	30	30	37	37	37	37	38
0	0	0	0	0	0	0	0	0	0	0	0	0	0	0	0	0	0	0	0	0	0	0	0	0	0	0	0	0	0	0	0	0	0	0	0	0	0	0	0	0	0	0	0	0	0	0	0	0	0	0	0	0	0	0	0	0	0	0	0	0	0	0	0	0	0	0	0	0	0	0	0	0	0	0	0	0	0	0	0	0	0	0	0	0	0	0	0	0	0	0	0	0	0	0	0	0	0	0	0	0	0	0	0	0	0	0	0	0	0	0	0	0	0	0	0	0	0	0	0	0	0	0	0	0	0	0	0	0	0	0	28	28	28	28	23	23	23	23	20	20	20	20	16	16	16	16	12	12	12	12	15	15	15	15	12	12	12	12	10	10	10	10	6	6	6	6	0	0	0	0	6	6	6	6	2	2	2	2	0	0	0	0	14	14	14	14	10	10	10	10	6	6	6	6	5	5	5	5	3	3	3	3	0	0	0	0	10	10	10	10	7	7	7	7	7	7	7	7	7	7	7	7	5	5	5	5	11	11	11	11	12	12	12	12	11	11	11	11	8	8	8	8	5	5	5	5	4	4	4	4	4	4	4	4	3	3	3	3	7	7	7	7	8	8	8	8	10	10	10	10	10	10	10	10	13	13	13	13	10	10	10	10	9	9	9	9	11	11	11	11	12	12	12	12	16	16	16	16	16	16	16	16	17	17	17	17	17	17	17	17	20	20	20	20	21	21	21	21	26	26	26	26	21	21	21	21	21	21	21	21	20	20	20	20	16	16	16	16	14	14	14	14	16	16	16	16	25	25	25	25	24	24	24	24	21	21	21	21	20	20	20	20	22	22	22	22	20	20	20	20	16	16	16	16	16	16	16	16	21	21	21	21	26	26	26	26	28	28	28	28	31	31	31	31	38	38	38	38	39
0	0	0	0	0	0	0	0	0	0	0	0	0	0	0	0	0	0	0	0	0	0	0	0	0	0	0	0	0	0	0	0	0	0	0	0	0	0	0	0	0	0	0	0	0	0	0	0	0	0	0	0	0	0	0	0	0	0	0	0	0	0	0	0	0	0	0	0	0	0	0	0	0	0	0	0	0	0	0	0	0	0	0	0	0	0	0	0	0	0	0	0	0	0	0	0	0	0	0	0	0	0	0	0	0	0	0	0	0	0	0	0	0	0	0	0	0	0	0	0	0	0	0	0	0	0	0	0	0	0	0	28	28	28	28	23	23	23	23	20	20	20	20	16	16	16	16	12	12	12	12	15	15	15	15	12	12	12	12	10	10	10	10	6	6	6	6	0	0	0	0	6	6	6	6	2	2	2	2	0	0	0	0	14	14	14	14	10	10	10	10	6	6	6	6	5	5	5	5	3	3	3	3	0	0	0	0	10	10	10	10	7	7	7	7	7	7	7	7	7	7	7	7	5	5	5	5	11	11	11	11	12	12	12	12	11	11	11	11	8	8	8	8	5	5	5	5	4	4	4	4	4	4	4	4	3	3	3	3	7	7	7	7	8	8	8	8	10	10	10	10	10	10	10	10	13	13	13	13	10	10	10	10	9	9	9	9	11	11	11	11	12	12	12	12	16	16	16	16	16	16	16	16	17	17	17	17	17	17	17	17	20	20	20	20	21	21	21	21	26	26	26	26	21	21	21	21	21	21	21	21	20	20	20	20	16	16	16	16	14	14	14	14	16	16	16	16	25	25	25	25	24	24	24	24	21	21	21	21	20	20	20	20	22	22	22	22	20	20	20	20	16	16	16	16	16	16	16	16	21	21	21	21	26	26	26	26	28	28	28	28	31	31	31	31	38	38	38	38	39
0	0	0	0	0	0	0	0	0	0	0	0	0	0	0	0	0	0	0	0	0	0	0	0	0	0	0	0	0	0	0	0	0	0	0	0	0	0	0	0	0	0	0	0	0	0	0	0	0	0	0	0	0	0	0	0	0	0	0	0	0	0	0	0	0	0	0	0	0	0	0	0	0	0	0	0	0	0	0	0	0	0	0	0	0	0	0	0	0	0	0	0	0	0	0	0	0	0	0	0	0	0	0	0	0	0	0	0	0	0	0	0	0	0	0	0	0	0	0	0	0	0	0	0	0	0	0	0	0	0	0	28	28	28	28	23	23	23	23	20	20	20	20	16	16	16	16	12	12	12	12	15	15	15	15	12	12	12	12	10	10	10	10	6	6	6	6	0	0	0	0	6	6	6	6	2	2	2	2	0	0	0	0	14	14	14	14	10	10	10	10	6	6	6	6	5	5	5	5	3	3	3	3	0	0	0	0	10	10	10	10	7	7	7	7	7	7	7	7	7	7	7	7	5	5	5	5	11	11	11	11	12	12	12	12	11	11	11	11	8	8	8	8	5	5	5	5	4	4	4	4	4	4	4	4	3	3	3	3	7	7	7	7	8	8	8	8	10	10	10	10	10	10	10	10	13	13	13	13	10	10	10	10	9	9	9	9	11	11	11	11	12	12	12	12	16	16	16	16	16	16	16	16	17	17	17	17	17	17	17	17	20	20	20	20	21	21	21	21	26	26	26	26	21	21	21	21	21	21	21	21	20	20	20	20	16	16	16	16	14	14	14	14	16	16	16	16	25	25	25	25	24	24	24	24	21	21	21	21	20	20	20	20	22	22	22	22	20	20	20	20	16	16	16	16	16	16	16	16	21	21	21	21	26	26	26	26	28	28	28	28	31	31	31	31	38	38	38	38	39
0	0	0	0	0	0	0	0	0	0	0	0	0	0	0	0	0	0	0	0	0	0	0	0	0	0	0	0	0	0	0	0	0	0	0	0	0	0	0	0	0	0	0	0	0	0	0	0	0	0	0	0	0	0	0	0	0	0	0	0	0	0	0	0	0	0	0	0	0	0	0	0	0	0	0	0	0	0	0	0	0	0	0	0	0	0	0	0	0	0	0	0	0	0	0	0	0	0	0	0	0	0	0	0	0	0	0	0	0	0	0	0	0	0	0	0	0	0	0	0	0	0	0	0	0	0	0	0	0	0	0	28	28	28	28	23	23	23	23	20	20	20	20	16	16	16	16	12	12	12	12	15	15	15	15	12	12	12	12	10	10	10	10	6	6	6	6	0	0	0	0	6	6	6	6	2	2	2	2	0	0	0	0	14	14	14	14	10	10	10	10	6	6	6	6	5	5	5	5	3	3	3	3	0	0	0	0	10	10	10	10	7	7	7	7	7	7	7	7	7	7	7	7	5	5	5	5	11	11	11	11	12	12	12	12	11	11	11	11	8	8	8	8	5	5	5	5	4	4	4	4	4	4	4	4	3	3	3	3	7	7	7	7	8	8	8	8	10	10	10	10	10	10	10	10	13	13	13	13	10	10	10	10	9	9	9	9	11	11	11	11	12	12	12	12	16	16	16	16	16	16	16	16	17	17	17	17	17	17	17	17	20	20	20	20	21	21	21	21	26	26	26	26	21	21	21	21	21	21	21	21	20	20	20	20	16	16	16	16	14	14	14	14	16	16	16	16	25	25	25	25	24	24	24	24	21	21	21	21	20	20	20	20	22	22	22	22	20	20	20	20	16	16	16	16	16	16	16	16	21	21	21	21	26	26	26	26	28	28	28	28	31	31	31	31	38	38	38	38	39
0	0	0	0	0	0	0	0	0	0	0	0	0	0	0	0	0	0	0	0	0	0	0	0	0	0	0	0	0	0	0	0	0	0	0	0	0	0	0	0	0	0	0	0	0	0	0	0	0	0	0	0	0	0	0	0	0	0	0	0	0	0	0	0	0	0	0	0	0	0	0	0	0	0	0	0	0	0	0	0	0	0	0	0	0	0	0	0	0	0	0	0	0	0	0	0	0	0	0	0	0	0	0	0	0	0	0	0	0	0	0	0	0	0	0	0	0	0	0	0	0	0	0	0	0	0	0	0	0	0	0	29	29	29	29	23	23	23	23	22	22	22	22	18	18	18	18	16	16	16	16	17	17	17	17	14	14	14	14	11	11	11	11	10	10	10	10	13	13	13	13	8	8	8	8	5	5	5	5	0	0	0	0	12	12	12	12	17	17	17	17	10	10	10	10	8	8	8	8	6	6	6	6	3	3	3	3	10	10	10	10	11	11	11	11	8	8	8	8	5	5	5	5	6	6	6	6	13	13	13	13	13	13	13	13	11	11	11	11	9	9	9	9	6	6	6	6	3	3	3	3	5	5	5	5	3	3	3	3	7	7	7	7	6	6	6	6	9	9	9	9	10	10	10	10	11	11	11	11	11	11	11	11	11	11	11	11	13	13	13	13	12	12	12	12	17	17	17	17	16	16	16	16	16	16	16	16	17	17	17	17	20	20	20	20	21	21	21	21	26	26	26	26	24	24	24	24	21	21	21	21	22	22	22	22	20	20	20	20	16	16	16	16	16	16	16	16	25	25	25	25	28	28	28	28	23	23	23	23	28	28	28	28	23	23	23	23	21	21	21	21	21	21	21	21	18	18	18	18	16	16	16	16	21	21	21	21	27	27	27	27	31	31	31	31	33	33	33	33	32
0	0	0	0	0	0	0	0	0	0	0	0	0	0	0	0	0	0	0	0	0	0	0	0	0	0	0	0	0	0	0	0	0	0	0	0	0	0	0	0	0	0	0	0	0	0	0	0	0	0	0	0	0	0	0	0	0	0	0	0	0	0	0	0	0	0	0	0	0	0	0	0	0	0	0	0	0	0	0	0	0	0	0	0	0	0	0	0	0	0	0	0	0	0	0	0	0	0	0	0	0	0	0	0	0	0	0	0	0	0	0	0	0	0	0	0	0	0	0	0	0	0	0	0	0	0	0	0	0	0	0	29	29	29	29	23	23	23	23	22	22	22	22	18	18	18	18	16	16	16	16	17	17	17	17	14	14	14	14	11	11	11	11	10	10	10	10	13	13	13	13	8	8	8	8	5	5	5	5	0	0	0	0	12	12	12	12	17	17	17	17	10	10	10	10	8	8	8	8	6	6	6	6	3	3	3	3	10	10	10	10	11	11	11	11	8	8	8	8	5	5	5	5	6	6	6	6	13	13	13	13	13	13	13	13	11	11	11	11	9	9	9	9	6	6	6	6	3	3	3	3	5	5	5	5	3	3	3	3	7	7	7	7	6	6	6	6	9	9	9	9	10	10	10	10	11	11	11	11	11	11	11	11	11	11	11	11	13	13	13	13	12	12	12	12	17	17	17	17	16	16	16	16	16	16	16	16	17	17	17	17	20	20	20	20	21	21	21	21	26	26	26	26	24	24	24	24	21	21	21	21	22	22	22	22	20	20	20	20	16	16	16	16	16	16	16	16	25	25	25	25	28	28	28	28	23	23	23	23	28	28	28	28	23	23	23	23	21	21	21	21	21	21	21	21	18	18	18	18	16	16	16	16	21	21	21	21	27	27	27	27	31	31	31	31	33	33	33	33	32
0	0	0	0	0	0	0	0	0	0	0	0	0	0	0	0	0	0	0	0	0	0	0	0	0	0	0	0	0	0	0	0	0	0	0	0	0	0	0	0	0	0	0	0	0	0	0	0	0	0	0	0	0	0	0	0	0	0	0	0	0	0	0	0	0	0	0	0	0	0	0	0	0	0	0	0	0	0	0	0	0	0	0	0	0	0	0	0	0	0	0	0	0	0	0	0	0	0	0	0	0	0	0	0	0	0	0	0	0	0	0	0	0	0	0	0	0	0	0	0	0	0	0	0	0	0	0	0	0	0	0	29	29	29	29	23	23	23	23	22	22	22	22	18	18	18	18	16	16	16	16	17	17	17	17	14	14	14	14	11	11	11	11	10	10	10	10	13	13	13	13	8	8	8	8	5	5	5	5	0	0	0	0	12	12	12	12	17	17	17	17	10	10	10	10	8	8	8	8	6	6	6	6	3	3	3	3	10	10	10	10	11	11	11	11	8	8	8	8	5	5	5	5	6	6	6	6	13	13	13	13	13	13	13	13	11	11	11	11	9	9	9	9	6	6	6	6	3	3	3	3	5	5	5	5	3	3	3	3	7	7	7	7	6	6	6	6	9	9	9	9	10	10	10	10	11	11	11	11	11	11	11	11	11	11	11	11	13	13	13	13	12	12	12	12	17	17	17	17	16	16	16	16	16	16	16	16	17	17	17	17	20	20	20	20	21	21	21	21	26	26	26	26	24	24	24	24	21	21	21	21	22	22	22	22	20	20	20	20	16	16	16	16	16	16	16	16	25	25	25	25	28	28	28	28	23	23	23	23	28	28	28	28	23	23	23	23	21	21	21	21	21	21	21	21	18	18	18	18	16	16	16	16	21	21	21	21	27	27	27	27	31	31	31	31	33	33	33	33	32
0	0	0	0	0	0	0	0	0	0	0	0	0	0	0	0	0	0	0	0	0	0	0	0	0	0	0	0	0	0	0	0	0	0	0	0	0	0	0	0	0	0	0	0	0	0	0	0	0	0	0	0	0	0	0	0	0	0	0	0	0	0	0	0	0	0	0	0	0	0	0	0	0	0	0	0	0	0	0	0	0	0	0	0	0	0	0	0	0	0	0	0	0	0	0	0	0	0	0	0	0	0	0	0	0	0	0	0	0	0	0	0	0	0	0	0	0	0	0	0	0	0	0	0	0	0	0	0	0	0	0	29	29	29	29	23	23	23	23	22	22	22	22	18	18	18	18	16	16	16	16	17	17	17	17	14	14	14	14	11	11	11	11	10	10	10	10	13	13	13	13	8	8	8	8	5	5	5	5	0	0	0	0	12	12	12	12	17	17	17	17	10	10	10	10	8	8	8	8	6	6	6	6	3	3	3	3	10	10	10	10	11	11	11	11	8	8	8	8	5	5	5	5	6	6	6	6	13	13	13	13	13	13	13	13	11	11	11	11	9	9	9	9	6	6	6	6	3	3	3	3	5	5	5	5	3	3	3	3	7	7	7	7	6	6	6	6	9	9	9	9	10	10	10	10	11	11	11	11	11	11	11	11	11	11	11	11	13	13	13	13	12	12	12	12	17	17	17	17	16	16	16	16	16	16	16	16	17	17	17	17	20	20	20	20	21	21	21	21	26	26	26	26	24	24	24	24	21	21	21	21	22	22	22	22	20	20	20	20	16	16	16	16	16	16	16	16	25	25	25	25	28	28	28	28	23	23	23	23	28	28	28	28	23	23	23	23	21	21	21	21	21	21	21	21	18	18	18	18	16	16	16	16	21	21	21	21	27	27	27	27	31	31	31	31	33	33	33	33	32
0	0	0	0	0	0	0	0	0	0	0	0	0	0	0	0	0	0	0	0	0	0	0	0	0	0	0	0	0	0	0	0	0	0	0	0	0	0	0	0	0	0	0	0	0	0	0	0	0	0	0	0	0	0	0	0	0	0	0	0	0	0	0	0	0	0	0	0	0	0	0	0	0	0	0	0	0	0	0	0	0	0	0	0	0	0	0	0	0	0	0	0	0	0	0	0	0	0	0	0	0	0	0	0	0	0	0	0	0	0	0	0	0	0	0	0	0	0	0	0	0	0	0	0	0	0	0	0	0	0	0	28	28	28	28	23	23	23	23	21	21	21	21	18	18	18	18	19	19	19	19	16	16	16	16	17	17	17	17	11	11	11	11	13	13	13	13	13	13	13	13	8	8	8	8	3	3	3	3	1	1	1	1	0	0	0	0	16	16	16	16	12	12	12	12	9	9	9	9	7	7	7	7	5	5	5	5	8	8	8	8	13	13	13	13	9	9	9	9	5	5	5	5	8	8	8	8	13	13	13	13	12	12	12	12	12	12	12	12	11	11	11	11	8	8	8	8	3	3	3	3	5	5	5	5	3	3	3	3	5	5	5	5	5	5	5	5	7	7	7	7	10	10	10	10	10	10	10	10	13	13	13	13	12	12	12	12	12	12	12	12	15	15	15	15	16	16	16	16	19	19	19	19	16	16	16	16	16	16	16	16	19	19	19	19	22	22	22	22	24	24	24	24	23	23	23	23	28	28	28	28	26	26	26	26	20	20	20	20	20	20	20	20	14	14	14	14	18	18	18	18	23	23	23	23	31	31	31	31	31	31	31	31	27	27	27	27	25	25	25	25	29	29	29	29	24	24	24	24	26	26	26	26	16	16	16	16	18	18	18	18	25	25	25	25	25	25	25	25	31
0	0	0	0	0	0	0	0	0	0	0	0	0	0	0	0	0	0	0	0	0	0	0	0	0	0	0	0	0	0	0	0	0	0	0	0	0	0	0	0	0	0	0	0	0	0	0	0	0	0	0	0	0	0	0	0	0	0	0	0	0	0	0	0	0	0	0	0	0	0	0	0	0	0	0	0	0	0	0	0	0	0	0	0	0	0	0	0	0	0	0	0	0	0	0	0	0	0	0	0	0	0	0	0	0	0	0	0	0	0	0	0	0	0	0	0	0	0	0	0	0	0	0	0	0	0	0	0	0	0	0	28	28	28	28	23	23	23	23	21	21	21	21	18	18	18	18	19	19	19	19	16	16	16	16	17	17	17	17	11	11	11	11	13	13	13	13	13	13	13	13	8	8	8	8	3	3	3	3	1	1	1	1	0	0	0	0	16	16	16	16	12	12	12	12	9	9	9	9	7	7	7	7	5	5	5	5	8	8	8	8	13	13	13	13	9	9	9	9	5	5	5	5	8	8	8	8	13	13	13	13	12	12	12	12	12	12	12	12	11	11	11	11	8	8	8	8	3	3	3	3	5	5	5	5	3	3	3	3	5	5	5	5	5	5	5	5	7	7	7	7	10	10	10	10	10	10	10	10	13	13	13	13	12	12	12	12	12	12	12	12	15	15	15	15	16	16	16	16	19	19	19	19	16	16	16	16	16	16	16	16	19	19	19	19	22	22	22	22	24	24	24	24	23	23	23	23	28	28	28	28	26	26	26	26	20	20	20	20	20	20	20	20	14	14	14	14	18	18	18	18	23	23	23	23	31	31	31	31	31	31	31	31	27	27	27	27	25	25	25	25	29	29	29	29	24	24	24	24	26	26	26	26	16	16	16	16	18	18	18	18	25	25	25	25	25	25	25	25	31
0	0	0	0	0	0	0	0	0	0	0	0	0	0	0	0	0	0	0	0	0	0	0	0	0	0	0	0	0	0	0	0	0	0	0	0	0	0	0	0	0	0	0	0	0	0	0	0	0	0	0	0	0	0	0	0	0	0	0	0	0	0	0	0	0	0	0	0	0	0	0	0	0	0	0	0	0	0	0	0	0	0	0	0	0	0	0	0	0	0	0	0	0	0	0	0	0	0	0	0	0	0	0	0	0	0	0	0	0	0	0	0	0	0	0	0	0	0	0	0	0	0	0	0	0	0	0	0	0	0	0	28	28	28	28	23	23	23	23	21	21	21	21	18	18	18	18	19	19	19	19	16	16	16	16	17	17	17	17	11	11	11	11	13	13	13	13	13	13	13	13	8	8	8	8	3	3	3	3	1	1	1	1	0	0	0	0	16	16	16	16	12	12	12	12	9	9	9	9	7	7	7	7	5	5	5	5	8	8	8	8	13	13	13	13	9	9	9	9	5	5	5	5	8	8	8	8	13	13	13	13	12	12	12	12	12	12	12	12	11	11	11	11	8	8	8	8	3	3	3	3	5	5	5	5	3	3	3	3	5	5	5	5	5	5	5	5	7	7	7	7	10	10	10	10	10	10	10	10	13	13	13	13	12	12	12	12	12	12	12	12	15	15	15	15	16	16	16	16	19	19	19	19	16	16	16	16	16	16	16	16	19	19	19	19	22	22	22	22	24	24	24	24	23	23	23	23	28	28	28	28	26	26	26	26	20	20	20	20	20	20	20	20	14	14	14	14	18	18	18	18	23	23	23	23	31	31	31	31	31	31	31	31	27	27	27	27	25	25	25	25	29	29	29	29	24	24	24	24	26	26	26	26	16	16	16	16	18	18	18	18	25	25	25	25	25	25	25	25	31
0	0	0	0	0	0	0	0	0	0	0	0	0	0	0	0	0	0	0	0	0	0	0	0	0	0	0	0	0	0	0	0	0	0	0	0	0	0	0	0	0	0	0	0	0	0	0	0	0	0	0	0	0	0	0	0	0	0	0	0	0	0	0	0	0	0	0	0	0	0	0	0	0	0	0	0	0	0	0	0	0	0	0	0	0	0	0	0	0	0	0	0	0	0	0	0	0	0	0	0	0	0	0	0	0	0	0	0	0	0	0	0	0	0	0	0	0	0	0	0	0	0	0	0	0	0	0	0	0	0	0	28	28	28	28	23	23	23	23	21	21	21	21	18	18	18	18	19	19	19	19	16	16	16	16	17	17	17	17	11	11	11	11	13	13	13	13	13	13	13	13	8	8	8	8	3	3	3	3	1	1	1	1	0	0	0	0	16	16	16	16	12	12	12	12	9	9	9	9	7	7	7	7	5	5	5	5	8	8	8	8	13	13	13	13	9	9	9	9	5	5	5	5	8	8	8	8	13	13	13	13	12	12	12	12	12	12	12	12	11	11	11	11	8	8	8	8	3	3	3	3	5	5	5	5	3	3	3	3	5	5	5	5	5	5	5	5	7	7	7	7	10	10	10	10	10	10	10	10	13	13	13	13	12	12	12	12	12	12	12	12	15	15	15	15	16	16	16	16	19	19	19	19	16	16	16	16	16	16	16	16	19	19	19	19	22	22	22	22	24	24	24	24	23	23	23	23	28	28	28	28	26	26	26	26	20	20	20	20	20	20	20	20	14	14	14	14	18	18	18	18	23	23	23	23	31	31	31	31	31	31	31	31	27	27	27	27	25	25	25	25	29	29	29	29	24	24	24	24	26	26	26	26	16	16	16	16	18	18	18	18	25	25	25	25	25	25	25	25	31
0	0	0	0	0	0	0	0	0	0	0	0	0	0	0	0	0	0	0	0	0	0	0	0	0	0	0	0	0	0	0	0	0	0	0	0	0	0	0	0	0	0	0	0	0	0	0	0	0	0	0	0	0	0	0	0	0	0	0	0	0	0	0	0	0	0	0	0	0	0	0	0	0	0	0	0	0	0	0	0	0	0	0	0	0	0	0	0	0	0	0	0	0	0	0	0	0	0	0	0	0	0	0	0	0	0	0	0	0	0	0	0	0	0	0	0	0	0	0	0	0	0	0	0	0	0	0	0	0	0	0	29	29	29	29	23	23	23	23	21	21	21	21	20	20	20	20	20	20	20	20	19	19	19	19	17	17	17	17	13	13	13	13	15	15	15	15	13	13	13	13	7	7	7	7	5	5	5	5	2	2	2	2	15	15	15	15	18	18	18	18	17	17	17	17	11	11	11	11	8	8	8	8	5	5	5	5	10	10	10	10	13	13	13	13	9	9	9	9	8	8	8	8	11	11	11	11	12	12	12	12	12	12	12	12	12	12	12	12	11	11	11	11	8	8	8	8	5	5	5	5	5	5	5	5	7	7	7	7	5	5	5	5	3	3	3	3	7	7	7	7	9	9	9	9	11	11	11	11	12	12	12	12	12	12	12	12	12	12	12	12	14	14	14	14	17	17	17	17	16	16	16	16	19	19	19	19	20	20	20	20	20	20	20	20	24	24	24	24	25	25	25	25	28	28	28	28	29	29	29	29	26	26	26	26	26	26	26	26	22	22	22	22	16	16	16	16	17	17	17	17	17	17	17	17	20	20	20	20	25	25	25	25	32	32	32	32	30	30	30	30	31	31	31	31	30	30	30	30	33	33	33	33	28	28	28	28	21	21	21	21	20	20	20	20	26	26	26	26	31
0	0	0	0	0	0	0	0	0	0	0	0	0	0	0	0	0	0	0	0	0	0	0	0	0	0	0	0	0	0	0	0	0	0	0	0	0	0	0	0	0	0	0	0	0	0	0	0	0	0	0	0	0	0	0	0	0	0	0	0	0	0	0	0	0	0	0	0	0	0	0	0	0	0	0	0	0	0	0	0	0	0	0	0	0	0	0	0	0	0	0	0	0	0	0	0	0	0	0	0	0	0	0	0	0	0	0	0	0	0	0	0	0	0	0	0	0	0	0	0	0	0	0	0	0	0	0	0	0	0	0	29	29	29	29	23	23	23	23	21	21	21	21	20	20	20	20	20	20	20	20	19	19	19	19	17	17	17	17	13	13	13	13	15	15	15	15	13	13	13	13	7	7	7	7	5	5	5	5	2	2	2	2	15	15	15	15	18	18	18	18	17	17	17	17	11	11	11	11	8	8	8	8	5	5	5	5	10	10	10	10	13	13	13	13	9	9	9	9	8	8	8	8	11	11	11	11	12	12	12	12	12	12	12	12	12	12	12	12	11	11	11	11	8	8	8	8	5	5	5	5	5	5	5	5	7	7	7	7	5	5	5	5	3	3	3	3	7	7	7	7	9	9	9	9	11	11	11	11	12	12	12	12	12	12	12	12	12	12	12	12	14	14	14	14	17	17	17	17	16	16	16	16	19	19	19	19	20	20	20	20	20	20	20	20	24	24	24	24	25	25	25	25	28	28	28	28	29	29	29	29	26	26	26	26	26	26	26	26	22	22	22	22	16	16	16	16	17	17	17	17	17	17	17	17	20	20	20	20	25	25	25	25	32	32	32	32	30	30	30	30	31	31	31	31	30	30	30	30	33	33	33	33	28	28	28	28	21	21	21	21	20	20	20	20	26	26	26	26	31
0	0	0	0	0	0	0	0	0	0	0	0	0	0	0	0	0	0	0	0	0	0	0	0	0	0	0	0	0	0	0	0	0	0	0	0	0	0	0	0	0	0	0	0	0	0	0	0	0	0	0	0	0	0	0	0	0	0	0	0	0	0	0	0	0	0	0	0	0	0	0	0	0	0	0	0	0	0	0	0	0	0	0	0	0	0	0	0	0	0	0	0	0	0	0	0	0	0	0	0	0	0	0	0	0	0	0	0	0	0	0	0	0	0	0	0	0	0	0	0	0	0	0	0	0	0	0	0	0	0	0	29	29	29	29	23	23	23	23	21	21	21	21	20	20	20	20	20	20	20	20	19	19	19	19	17	17	17	17	13	13	13	13	15	15	15	15	13	13	13	13	7	7	7	7	5	5	5	5	2	2	2	2	15	15	15	15	18	18	18	18	17	17	17	17	11	11	11	11	8	8	8	8	5	5	5	5	10	10	10	10	13	13	13	13	9	9	9	9	8	8	8	8	11	11	11	11	12	12	12	12	12	12	12	12	12	12	12	12	11	11	11	11	8	8	8	8	5	5	5	5	5	5	5	5	7	7	7	7	5	5	5	5	3	3	3	3	7	7	7	7	9	9	9	9	11	11	11	11	12	12	12	12	12	12	12	12	12	12	12	12	14	14	14	14	17	17	17	17	16	16	16	16	19	19	19	19	20	20	20	20	20	20	20	20	24	24	24	24	25	25	25	25	28	28	28	28	29	29	29	29	26	26	26	26	26	26	26	26	22	22	22	22	16	16	16	16	17	17	17	17	17	17	17	17	20	20	20	20	25	25	25	25	32	32	32	32	30	30	30	30	31	31	31	31	30	30	30	30	33	33	33	33	28	28	28	28	21	21	21	21	20	20	20	20	26	26	26	26	31
0	0	0	0	0	0	0	0	0	0	0	0	0	0	0	0	0	0	0	0	0	0	0	0	0	0	0	0	0	0	0	0	0	0	0	0	0	0	0	0	0	0	0	0	0	0	0	0	0	0	0	0	0	0	0	0	0	0	0	0	0	0	0	0	0	0	0	0	0	0	0	0	0	0	0	0	0	0	0	0	0	0	0	0	0	0	0	0	0	0	0	0	0	0	0	0	0	0	0	0	0	0	0	0	0	0	0	0	0	0	0	0	0	0	0	0	0	0	0	0	0	0	0	0	0	0	0	0	0	0	0	29	29	29	29	23	23	23	23	21	21	21	21	20	20	20	20	20	20	20	20	19	19	19	19	17	17	17	17	13	13	13	13	15	15	15	15	13	13	13	13	7	7	7	7	5	5	5	5	2	2	2	2	15	15	15	15	18	18	18	18	17	17	17	17	11	11	11	11	8	8	8	8	5	5	5	5	10	10	10	10	13	13	13	13	9	9	9	9	8	8	8	8	11	11	11	11	12	12	12	12	12	12	12	12	12	12	12	12	11	11	11	11	8	8	8	8	5	5	5	5	5	5	5	5	7	7	7	7	5	5	5	5	3	3	3	3	7	7	7	7	9	9	9	9	11	11	11	11	12	12	12	12	12	12	12	12	12	12	12	12	14	14	14	14	17	17	17	17	16	16	16	16	19	19	19	19	20	20	20	20	20	20	20	20	24	24	24	24	25	25	25	25	28	28	28	28	29	29	29	29	26	26	26	26	26	26	26	26	22	22	22	22	16	16	16	16	17	17	17	17	17	17	17	17	20	20	20	20	25	25	25	25	32	32	32	32	30	30	30	30	31	31	31	31	30	30	30	30	33	33	33	33	28	28	28	28	21	21	21	21	20	20	20	20	26	26	26	26	31
0	0	0	0	0	0	0	0	0	0	0	0	0	0	0	0	0	0	0	0	0	0	0	0	0	0	0	0	0	0	0	0	0	0	0	0	0	0	0	0	0	0	0	0	0	0	0	0	0	0	0	0	0	0	0	0	0	0	0	0	0	0	0	0	0	0	0	0	0	0	0	0	0	0	0	0	0	0	0	0	0	0	0	0	0	0	0	0	0	0	0	0	0	0	0	0	0	0	0	0	0	0	0	0	0	0	0	0	0	0	0	0	0	0	0	0	0	0	0	0	0	0	0	0	0	0	0	0	0	0	0	24	24	24	24	21	21	21	21	24	24	24	24	24	24	24	24	23	23	23	23	22	22	22	22	16	16	16	16	14	14	14	14	17	17	17	17	12	12	12	12	9	9	9	9	6	6	6	6	3	3	3	3	0	0	0	0	17	17	17	17	19	19	19	19	13	13	13	13	8	8	8	8	8	8	8	8	11	11	11	11	12	12	12	12	10	10	10	10	8	8	8	8	12	12	12	12	12	12	12	12	13	13	13	13	13	13	13	13	9	9	9	9	5	5	5	5	5	5	5	5	5	5	5	5	7	7	7	7	7	7	7	7	5	5	5	5	7	7	7	7	10	10	10	10	12	12	12	12	12	12	12	12	12	12	12	12	12	12	12	12	15	15	15	15	12	12	12	12	17	17	17	17	16	16	16	16	20	20	20	20	21	21	21	21	28	28	28	28	29	29	29	29	27	27	27	27	27	27	27	27	29	29	29	29	28	28	28	28	21	21	21	21	23	23	23	23	23	23	23	23	16	16	16	16	14	14	14	14	21	21	21	21	30	30	30	30	32	32	32	32	32	32	32	32	32	32	32	32	38	38	38	38	38	38	38	38	27	27	27	27	21	21	21	21	22	22	22	22	27
0	0	0	0	0	0	0	0	0	0	0	0	0	0	0	0	0	0	0	0	0	0	0	0	0	0	0	0	0	0	0	0	0	0	0	0	0	0	0	0	0	0	0	0	0	0	0	0	0	0	0	0	0	0	0	0	0	0	0	0	0	0	0	0	0	0	0	0	0	0	0	0	0	0	0	0	0	0	0	0	0	0	0	0	0	0	0	0	0	0	0	0	0	0	0	0	0	0	0	0	0	0	0	0	0	0	0	0	0	0	0	0	0	0	0	0	0	0	0	0	0	0	0	0	0	0	0	0	0	0	0	24	24	24	24	21	21	21	21	24	24	24	24	24	24	24	24	23	23	23	23	22	22	22	22	16	16	16	16	14	14	14	14	17	17	17	17	12	12	12	12	9	9	9	9	6	6	6	6	3	3	3	3	0	0	0	0	17	17	17	17	19	19	19	19	13	13	13	13	8	8	8	8	8	8	8	8	11	11	11	11	12	12	12	12	10	10	10	10	8	8	8	8	12	12	12	12	12	12	12	12	13	13	13	13	13	13	13	13	9	9	9	9	5	5	5	5	5	5	5	5	5	5	5	5	7	7	7	7	7	7	7	7	5	5	5	5	7	7	7	7	10	10	10	10	12	12	12	12	12	12	12	12	12	12	12	12	12	12	12	12	15	15	15	15	12	12	12	12	17	17	17	17	16	16	16	16	20	20	20	20	21	21	21	21	28	28	28	28	29	29	29	29	27	27	27	27	27	27	27	27	29	29	29	29	28	28	28	28	21	21	21	21	23	23	23	23	23	23	23	23	16	16	16	16	14	14	14	14	21	21	21	21	30	30	30	30	32	32	32	32	32	32	32	32	32	32	32	32	38	38	38	38	38	38	38	38	27	27	27	27	21	21	21	21	22	22	22	22	27
0	0	0	0	0	0	0	0	0	0	0	0	0	0	0	0	0	0	0	0	0	0	0	0	0	0	0	0	0	0	0	0	0	0	0	0	0	0	0	0	0	0	0	0	0	0	0	0	0	0	0	0	0	0	0	0	0	0	0	0	0	0	0	0	0	0	0	0	0	0	0	0	0	0	0	0	0	0	0	0	0	0	0	0	0	0	0	0	0	0	0	0	0	0	0	0	0	0	0	0	0	0	0	0	0	0	0	0	0	0	0	0	0	0	0	0	0	0	0	0	0	0	0	0	0	0	0	0	0	0	0	24	24	24	24	21	21	21	21	24	24	24	24	24	24	24	24	23	23	23	23	22	22	22	22	16	16	16	16	14	14	14	14	17	17	17	17	12	12	12	12	9	9	9	9	6	6	6	6	3	3	3	3	0	0	0	0	17	17	17	17	19	19	19	19	13	13	13	13	8	8	8	8	8	8	8	8	11	11	11	11	12	12	12	12	10	10	10	10	8	8	8	8	12	12	12	12	12	12	12	12	13	13	13	13	13	13	13	13	9	9	9	9	5	5	5	5	5	5	5	5	5	5	5	5	7	7	7	7	7	7	7	7	5	5	5	5	7	7	7	7	10	10	10	10	12	12	12	12	12	12	12	12	12	12	12	12	12	12	12	12	15	15	15	15	12	12	12	12	17	17	17	17	16	16	16	16	20	20	20	20	21	21	21	21	28	28	28	28	29	29	29	29	27	27	27	27	27	27	27	27	29	29	29	29	28	28	28	28	21	21	21	21	23	23	23	23	23	23	23	23	16	16	16	16	14	14	14	14	21	21	21	21	30	30	30	30	32	32	32	32	32	32	32	32	32	32	32	32	38	38	38	38	38	38	38	38	27	27	27	27	21	21	21	21	22	22	22	22	27
0	0	0	0	0	0	0	0	0	0	0	0	0	0	0	0	0	0	0	0	0	0	0	0	0	0	0	0	0	0	0	0	0	0	0	0	0	0	0	0	0	0	0	0	0	0	0	0	0	0	0	0	0	0	0	0	0	0	0	0	0	0	0	0	0	0	0	0	0	0	0	0	0	0	0	0	0	0	0	0	0	0	0	0	0	0	0	0	0	0	0	0	0	0	0	0	0	0	0	0	0	0	0	0	0	0	0	0	0	0	0	0	0	0	0	0	0	0	0	0	0	0	0	0	0	0	0	0	0	0	0	24	24	24	24	21	21	21	21	24	24	24	24	24	24	24	24	23	23	23	23	22	22	22	22	16	16	16	16	14	14	14	14	17	17	17	17	12	12	12	12	9	9	9	9	6	6	6	6	3	3	3	3	0	0	0	0	17	17	17	17	19	19	19	19	13	13	13	13	8	8	8	8	8	8	8	8	11	11	11	11	12	12	12	12	10	10	10	10	8	8	8	8	12	12	12	12	12	12	12	12	13	13	13	13	13	13	13	13	9	9	9	9	5	5	5	5	5	5	5	5	5	5	5	5	7	7	7	7	7	7	7	7	5	5	5	5	7	7	7	7	10	10	10	10	12	12	12	12	12	12	12	12	12	12	12	12	12	12	12	12	15	15	15	15	12	12	12	12	17	17	17	17	16	16	16	16	20	20	20	20	21	21	21	21	28	28	28	28	29	29	29	29	27	27	27	27	27	27	27	27	29	29	29	29	28	28	28	28	21	21	21	21	23	23	23	23	23	23	23	23	16	16	16	16	14	14	14	14	21	21	21	21	30	30	30	30	32	32	32	32	32	32	32	32	32	32	32	32	38	38	38	38	38	38	38	38	27	27	27	27	21	21	21	21	22	22	22	22	27
0	0	0	0	0	0	0	0	0	0	0	0	0	0	0	0	0	0	0	0	0	0	0	0	0	0	0	0	0	0	0	0	0	0	0	0	0	0	0	0	0	0	0	0	0	0	0	0	0	0	0	0	0	0	0	0	0	0	0	0	0	0	0	0	0	0	0	0	0	0	0	0	0	0	0	0	0	0	0	0	0	0	0	0	0	0	0	0	0	0	0	0	0	0	0	0	0	0	0	0	0	0	0	0	0	0	0	0	0	0	0	0	0	0	0	0	0	0	0	0	0	0	0	0	0	0	0	0	0	0	0	26	26	26	26	20	20	20	20	20	20	20	20	24	24	24	24	28	28	28	28	24	24	24	24	20	20	20	20	16	16	16	16	18	18	18	18	14	14	14	14	12	12	12	12	8	8	8	8	6	6	6	6	14	14	14	14	21	21	21	21	18	18	18	18	13	13	13	13	11	11	11	11	13	13	13	13	13	13	13	13	12	12	12	12	11	11	11	11	10	10	10	10	12	12	12	12	12	12	12	12	11	11	11	11	9	9	9	9	8	8	8	8	6	6	6	6	7	7	7	7	6	6	6	6	5	5	5	5	7	7	7	7	8	8	8	8	7	7	7	7	9	9	9	9	10	10	10	10	13	13	13	13	13	13	13	13	12	12	12	12	15	15	15	15	17	17	17	17	17	17	17	17	16	16	16	16	20	20	20	20	21	21	21	21	23	23	23	23	29	29	29	29	29	29	29	29	27	27	27	27	27	27	27	27	29	29	29	29	23	23	23	23	29	29	29	29	30	30	30	30	25	25	25	25	16	16	16	16	18	18	18	18	22	22	22	22	29	29	29	29	34	34	34	34	34	34	34	34	39	39	39	39	39	39	39	39	32	32	32	32	29	29	29	29	23	23	23	23	25
0	0	0	0	0	0	0	0	0	0	0	0	0	0	0	0	0	0	0	0	0	0	0	0	0	0	0	0	0	0	0	0	0	0	0	0	0	0	0	0	0	0	0	0	0	0	0	0	0	0	0	0	0	0	0	0	0	0	0	0	0	0	0	0	0	0	0	0	0	0	0	0	0	0	0	0	0	0	0	0	0	0	0	0	0	0	0	0	0	0	0	0	0	0	0	0	0	0	0	0	0	0	0	0	0	0	0	0	0	0	0	0	0	0	0	0	0	0	0	0	0	0	0	0	0	0	0	0	0	0	0	26	26	26	26	20	20	20	20	20	20	20	20	24	24	24	24	28	28	28	28	24	24	24	24	20	20	20	20	16	16	16	16	18	18	18	18	14	14	14	14	12	12	12	12	8	8	8	8	6	6	6	6	14	14	14	14	21	21	21	21	18	18	18	18	13	13	13	13	11	11	11	11	13	13	13	13	13	13	13	13	12	12	12	12	11	11	11	11	10	10	10	10	12	12	12	12	12	12	12	12	11	11	11	11	9	9	9	9	8	8	8	8	6	6	6	6	7	7	7	7	6	6	6	6	5	5	5	5	7	7	7	7	8	8	8	8	7	7	7	7	9	9	9	9	10	10	10	10	13	13	13	13	13	13	13	13	12	12	12	12	15	15	15	15	17	17	17	17	17	17	17	17	16	16	16	16	20	20	20	20	21	21	21	21	23	23	23	23	29	29	29	29	29	29	29	29	27	27	27	27	27	27	27	27	29	29	29	29	23	23	23	23	29	29	29	29	30	30	30	30	25	25	25	25	16	16	16	16	18	18	18	18	22	22	22	22	29	29	29	29	34	34	34	34	34	34	34	34	39	39	39	39	39	39	39	39	32	32	32	32	29	29	29	29	23	23	23	23	25
0	0	0	0	0	0	0	0	0	0	0	0	0	0	0	0	0	0	0	0	0	0	0	0	0	0	0	0	0	0	0	0	0	0	0	0	0	0	0	0	0	0	0	0	0	0	0	0	0	0	0	0	0	0	0	0	0	0	0	0	0	0	0	0	0	0	0	0	0	0	0	0	0	0	0	0	0	0	0	0	0	0	0	0	0	0	0	0	0	0	0	0	0	0	0	0	0	0	0	0	0	0	0	0	0	0	0	0	0	0	0	0	0	0	0	0	0	0	0	0	0	0	0	0	0	0	0	0	0	0	0	26	26	26	26	20	20	20	20	20	20	20	20	24	24	24	24	28	28	28	28	24	24	24	24	20	20	20	20	16	16	16	16	18	18	18	18	14	14	14	14	12	12	12	12	8	8	8	8	6	6	6	6	14	14	14	14	21	21	21	21	18	18	18	18	13	13	13	13	11	11	11	11	13	13	13	13	13	13	13	13	12	12	12	12	11	11	11	11	10	10	10	10	12	12	12	12	12	12	12	12	11	11	11	11	9	9	9	9	8	8	8	8	6	6	6	6	7	7	7	7	6	6	6	6	5	5	5	5	7	7	7	7	8	8	8	8	7	7	7	7	9	9	9	9	10	10	10	10	13	13	13	13	13	13	13	13	12	12	12	12	15	15	15	15	17	17	17	17	17	17	17	17	16	16	16	16	20	20	20	20	21	21	21	21	23	23	23	23	29	29	29	29	29	29	29	29	27	27	27	27	27	27	27	27	29	29	29	29	23	23	23	23	29	29	29	29	30	30	30	30	25	25	25	25	16	16	16	16	18	18	18	18	22	22	22	22	29	29	29	29	34	34	34	34	34	34	34	34	39	39	39	39	39	39	39	39	32	32	32	32	29	29	29	29	23	23	23	23	25
0	0	0	0	0	0	0	0	0	0	0	0	0	0	0	0	0	0	0	0	0	0	0	0	0	0	0	0	0	0	0	0	0	0	0	0	0	0	0	0	0	0	0	0	0	0	0	0	0	0	0	0	0	0	0	0	0	0	0	0	0	0	0	0	0	0	0	0	0	0	0	0	0	0	0	0	0	0	0	0	0	0	0	0	0	0	0	0	0	0	0	0	0	0	0	0	0	0	0	0	0	0	0	0	0	0	0	0	0	0	0	0	0	0	0	0	0	0	0	0	0	0	0	0	0	0	0	0	0	0	0	26	26	26	26	20	20	20	20	20	20	20	20	24	24	24	24	28	28	28	28	24	24	24	24	20	20	20	20	16	16	16	16	18	18	18	18	14	14	14	14	12	12	12	12	8	8	8	8	6	6	6	6	14	14	14	14	21	21	21	21	18	18	18	18	13	13	13	13	11	11	11	11	13	13	13	13	13	13	13	13	12	12	12	12	11	11	11	11	10	10	10	10	12	12	12	12	12	12	12	12	11	11	11	11	9	9	9	9	8	8	8	8	6	6	6	6	7	7	7	7	6	6	6	6	5	5	5	5	7	7	7	7	8	8	8	8	7	7	7	7	9	9	9	9	10	10	10	10	13	13	13	13	13	13	13	13	12	12	12	12	15	15	15	15	17	17	17	17	17	17	17	17	16	16	16	16	20	20	20	20	21	21	21	21	23	23	23	23	29	29	29	29	29	29	29	29	27	27	27	27	27	27	27	27	29	29	29	29	23	23	23	23	29	29	29	29	30	30	30	30	25	25	25	25	16	16	16	16	18	18	18	18	22	22	22	22	29	29	29	29	34	34	34	34	34	34	34	34	39	39	39	39	39	39	39	39	32	32	32	32	29	29	29	29	23	23	23	23	25
0	0	0	0	0	0	0	0	0	0	0	0	0	0	0	0	0	0	0	0	0	0	0	0	0	0	0	0	0	0	0	0	0	0	0	0	0	0	0	0	0	0	0	0	0	0	0	0	0	0	0	0	0	0	0	0	0	0	0	0	0	0	0	0	0	0	0	0	0	0	0	0	0	0	0	0	0	0	0	0	0	0	0	0	0	0	0	0	0	0	0	0	0	0	0	0	0	0	0	0	0	0	0	0	0	0	0	0	0	0	0	0	0	0	0	0	0	0	0	0	0	0	0	0	0	0	0	0	0	0	0	24	24	24	24	20	20	20	20	19	19	19	19	21	21	21	21	24	24	24	24	25	25	25	25	20	20	20	20	26	26	26	26	21	21	21	21	16	16	16	16	12	12	12	12	11	11	11	11	6	6	6	6	14	14	14	14	20	20	20	20	17	17	17	17	13	13	13	13	12	12	12	12	15	15	15	15	12	12	12	12	12	12	12	12	12	12	12	12	12	12	12	12	12	12	12	12	12	12	12	12	13	13	13	13	10	10	10	10	10	10	10	10	8	8	8	8	8	8	8	8	7	7	7	7	5	5	5	5	8	8	8	8	9	9	9	9	8	8	8	8	9	9	9	9	10	10	10	10	11	11	11	11	12	12	12	12	15	15	15	15	17	17	17	17	16	16	16	16	19	19	19	19	16	16	16	16	18	18	18	18	22	22	22	22	23	23	23	23	25	25	25	25	24	24	24	24	25	25	25	25	27	27	27	27	29	29	29	29	28	28	28	28	32	32	32	32	32	32	32	32	29	29	29	29	19	19	19	19	19	19	19	19	16	16	16	16	21	21	21	21	27	27	27	27	30	30	30	30	38	38	38	38	40	40	40	40	32	32	32	32	33	33	33	33	27	27	27	27	25
0	0	0	0	0	0	0	0	0	0	0	0	0	0	0	0	0	0	0	0	0	0	0	0	0	0	0	0	0	0	0	0	0	0	0	0	0	0	0	0	0	0	0	0	0	0	0	0	0	0	0	0	0	0	0	0	0	0	0	0	0	0	0	0	0	0	0	0	0	0	0	0	0	0	0	0	0	0	0	0	0	0	0	0	0	0	0	0	0	0	0	0	0	0	0	0	0	0	0	0	0	0	0	0	0	0	0	0	0	0	0	0	0	0	0	0	0	0	0	0	0	0	0	0	0	0	0	0	0	0	0	24	24	24	24	20	20	20	20	19	19	19	19	21	21	21	21	24	24	24	24	25	25	25	25	20	20	20	20	26	26	26	26	21	21	21	21	16	16	16	16	12	12	12	12	11	11	11	11	6	6	6	6	14	14	14	14	20	20	20	20	17	17	17	17	13	13	13	13	12	12	12	12	15	15	15	15	12	12	12	12	12	12	12	12	12	12	12	12	12	12	12	12	12	12	12	12	12	12	12	12	13	13	13	13	10	10	10	10	10	10	10	10	8	8	8	8	8	8	8	8	7	7	7	7	5	5	5	5	8	8	8	8	9	9	9	9	8	8	8	8	9	9	9	9	10	10	10	10	11	11	11	11	12	12	12	12	15	15	15	15	17	17	17	17	16	16	16	16	19	19	19	19	16	16	16	16	18	18	18	18	22	22	22	22	23	23	23	23	25	25	25	25	24	24	24	24	25	25	25	25	27	27	27	27	29	29	29	29	28	28	28	28	32	32	32	32	32	32	32	32	29	29	29	29	19	19	19	19	19	19	19	19	16	16	16	16	21	21	21	21	27	27	27	27	30	30	30	30	38	38	38	38	40	40	40	40	32	32	32	32	33	33	33	33	27	27	27	27	25
0	0	0	0	0	0	0	0	0	0	0	0	0	0	0	0	0	0	0	0	0	0	0	0	0	0	0	0	0	0	0	0	0	0	0	0	0	0	0	0	0	0	0	0	0	0	0	0	0	0	0	0	0	0	0	0	0	0	0	0	0	0	0	0	0	0	0	0	0	0	0	0	0	0	0	0	0	0	0	0	0	0	0	0	0	0	0	0	0	0	0	0	0	0	0	0	0	0	0	0	0	0	0	0	0	0	0	0	0	0	0	0	0	0	0	0	0	0	0	0	0	0	0	0	0	0	0	0	0	0	0	24	24	24	24	20	20	20	20	19	19	19	19	21	21	21	21	24	24	24	24	25	25	25	25	20	20	20	20	26	26	26	26	21	21	21	21	16	16	16	16	12	12	12	12	11	11	11	11	6	6	6	6	14	14	14	14	20	20	20	20	17	17	17	17	13	13	13	13	12	12	12	12	15	15	15	15	12	12	12	12	12	12	12	12	12	12	12	12	12	12	12	12	12	12	12	12	12	12	12	12	13	13	13	13	10	10	10	10	10	10	10	10	8	8	8	8	8	8	8	8	7	7	7	7	5	5	5	5	8	8	8	8	9	9	9	9	8	8	8	8	9	9	9	9	10	10	10	10	11	11	11	11	12	12	12	12	15	15	15	15	17	17	17	17	16	16	16	16	19	19	19	19	16	16	16	16	18	18	18	18	22	22	22	22	23	23	23	23	25	25	25	25	24	24	24	24	25	25	25	25	27	27	27	27	29	29	29	29	28	28	28	28	32	32	32	32	32	32	32	32	29	29	29	29	19	19	19	19	19	19	19	19	16	16	16	16	21	21	21	21	27	27	27	27	30	30	30	30	38	38	38	38	40	40	40	40	32	32	32	32	33	33	33	33	27	27	27	27	25
0	0	0	0	0	0	0	0	0	0	0	0	0	0	0	0	0	0	0	0	0	0	0	0	0	0	0	0	0	0	0	0	0	0	0	0	0	0	0	0	0	0	0	0	0	0	0	0	0	0	0	0	0	0	0	0	0	0	0	0	0	0	0	0	0	0	0	0	0	0	0	0	0	0	0	0	0	0	0	0	0	0	0	0	0	0	0	0	0	0	0	0	0	0	0	0	0	0	0	0	0	0	0	0	0	0	0	0	0	0	0	0	0	0	0	0	0	0	0	0	0	0	0	0	0	0	0	0	0	0	0	24	24	24	24	20	20	20	20	19	19	19	19	21	21	21	21	24	24	24	24	25	25	25	25	20	20	20	20	26	26	26	26	21	21	21	21	16	16	16	16	12	12	12	12	11	11	11	11	6	6	6	6	14	14	14	14	20	20	20	20	17	17	17	17	13	13	13	13	12	12	12	12	15	15	15	15	12	12	12	12	12	12	12	12	12	12	12	12	12	12	12	12	12	12	12	12	12	12	12	12	13	13	13	13	10	10	10	10	10	10	10	10	8	8	8	8	8	8	8	8	7	7	7	7	5	5	5	5	8	8	8	8	9	9	9	9	8	8	8	8	9	9	9	9	10	10	10	10	11	11	11	11	12	12	12	12	15	15	15	15	17	17	17	17	16	16	16	16	19	19	19	19	16	16	16	16	18	18	18	18	22	22	22	22	23	23	23	23	25	25	25	25	24	24	24	24	25	25	25	25	27	27	27	27	29	29	29	29	28	28	28	28	32	32	32	32	32	32	32	32	29	29	29	29	19	19	19	19	19	19	19	19	16	16	16	16	21	21	21	21	27	27	27	27	30	30	30	30	38	38	38	38	40	40	40	40	32	32	32	32	33	33	33	33	27	27	27	27	25
0	0	0	0	0	0	0	0	0	0	0	0	0	0	0	0	0	0	0	0	0	0	0	0	0	0	0	0	0	0	0	0	0	0	0	0	0	0	0	0	0	0	0	0	0	0	0	0	0	0	0	0	0	0	0	0	0	0	0	0	0	0	0	0	0	0	0	0	0	0	0	0	0	0	0	0	0	0	0	0	0	0	0	0	0	0	0	0	0	0	0	0	0	0	0	0	0	0	0	0	0	0	0	0	0	0	0	0	0	0	0	0	0	0	0	0	0	0	0	0	0	0	0	0	0	0	0	0	0	0	0	22	22	22	22	16	16	16	16	16	16	16	16	20	20	20	20	21	21	21	21	26	26	26	26	24	24	24	24	25	25	25	25	25	25	25	25	18	18	18	18	12	12	12	12	12	12	12	12	10	10	10	10	16	16	16	16	19	19	19	19	14	14	14	14	12	12	12	12	14	14	14	14	16	16	16	16	16	16	16	16	16	16	16	16	17	17	17	17	17	17	17	17	17	17	17	17	15	15	15	15	13	13	13	13	11	11	11	11	11	11	11	11	9	9	9	9	9	9	9	9	9	9	9	9	7	7	7	7	8	8	8	8	9	9	9	9	9	9	9	9	10	10	10	10	13	13	13	13	11	11	11	11	12	12	12	12	12	12	12	12	17	17	17	17	16	16	16	16	19	19	19	19	18	18	18	18	18	18	18	18	22	22	22	22	26	26	26	26	26	26	26	26	21	21	21	21	28	28	28	28	27	27	27	27	31	31	31	31	30	30	30	30	38	38	38	38	33	33	33	33	27	27	27	27	24	24	24	24	28	28	28	28	18	18	18	18	19	19	19	19	25	25	25	25	27	27	27	27	34	34	34	34	41	41	41	41	40	40	40	40	38	38	38	38	38	38	38	38	32
0	0	0	0	0	0	0	0	0	0	0	0	0	0	0	0	0	0	0	0	0	0	0	0	0	0	0	0	0	0	0	0	0	0	0	0	0	0	0	0	0	0	0	0	0	0	0	0	0	0	0	0	0	0	0	0	0	0	0	0	0	0	0	0	0	0	0	0	0	0	0	0	0	0	0	0	0	0	0	0	0	0	0	0	0	0	0	0	0	0	0	0	0	0	0	0	0	0	0	0	0	0	0	0	0	0	0	0	0	0	0	0	0	0	0	0	0	0	0	0	0	0	0	0	0	0	0	0	0	0	0	22	22	22	22	16	16	16	16	16	16	16	16	20	20	20	20	21	21	21	21	26	26	26	26	24	24	24	24	25	25	25	25	25	25	25	25	18	18	18	18	12	12	12	12	12	12	12	12	10	10	10	10	16	16	16	16	19	19	19	19	14	14	14	14	12	12	12	12	14	14	14	14	16	16	16	16	16	16	16	16	16	16	16	16	17	17	17	17	17	17	17	17	17	17	17	17	15	15	15	15	13	13	13	13	11	11	11	11	11	11	11	11	9	9	9	9	9	9	9	9	9	9	9	9	7	7	7	7	8	8	8	8	9	9	9	9	9	9	9	9	10	10	10	10	13	13	13	13	11	11	11	11	12	12	12	12	12	12	12	12	17	17	17	17	16	16	16	16	19	19	19	19	18	18	18	18	18	18	18	18	22	22	22	22	26	26	26	26	26	26	26	26	21	21	21	21	28	28	28	28	27	27	27	27	31	31	31	31	30	30	30	30	38	38	38	38	33	33	33	33	27	27	27	27	24	24	24	24	28	28	28	28	18	18	18	18	19	19	19	19	25	25	25	25	27	27	27	27	34	34	34	34	41	41	41	41	40	40	40	40	38	38	38	38	38	38	38	38	32
0	0	0	0	0	0	0	0	0	0	0	0	0	0	0	0	0	0	0	0	0	0	0	0	0	0	0	0	0	0	0	0	0	0	0	0	0	0	0	0	0	0	0	0	0	0	0	0	0	0	0	0	0	0	0	0	0	0	0	0	0	0	0	0	0	0	0	0	0	0	0	0	0	0	0	0	0	0	0	0	0	0	0	0	0	0	0	0	0	0	0	0	0	0	0	0	0	0	0	0	0	0	0	0	0	0	0	0	0	0	0	0	0	0	0	0	0	0	0	0	0	0	0	0	0	0	0	0	0	0	0	22	22	22	22	16	16	16	16	16	16	16	16	20	20	20	20	21	21	21	21	26	26	26	26	24	24	24	24	25	25	25	25	25	25	25	25	18	18	18	18	12	12	12	12	12	12	12	12	10	10	10	10	16	16	16	16	19	19	19	19	14	14	14	14	12	12	12	12	14	14	14	14	16	16	16	16	16	16	16	16	16	16	16	16	17	17	17	17	17	17	17	17	17	17	17	17	15	15	15	15	13	13	13	13	11	11	11	11	11	11	11	11	9	9	9	9	9	9	9	9	9	9	9	9	7	7	7	7	8	8	8	8	9	9	9	9	9	9	9	9	10	10	10	10	13	13	13	13	11	11	11	11	12	12	12	12	12	12	12	12	17	17	17	17	16	16	16	16	19	19	19	19	18	18	18	18	18	18	18	18	22	22	22	22	26	26	26	26	26	26	26	26	21	21	21	21	28	28	28	28	27	27	27	27	31	31	31	31	30	30	30	30	38	38	38	38	33	33	33	33	27	27	27	27	24	24	24	24	28	28	28	28	18	18	18	18	19	19	19	19	25	25	25	25	27	27	27	27	34	34	34	34	41	41	41	41	40	40	40	40	38	38	38	38	38	38	38	38	32
0	0	0	0	0	0	0	0	0	0	0	0	0	0	0	0	0	0	0	0	0	0	0	0	0	0	0	0	0	0	0	0	0	0	0	0	0	0	0	0	0	0	0	0	0	0	0	0	0	0	0	0	0	0	0	0	0	0	0	0	0	0	0	0	0	0	0	0	0	0	0	0	0	0	0	0	0	0	0	0	0	0	0	0	0	0	0	0	0	0	0	0	0	0	0	0	0	0	0	0	0	0	0	0	0	0	0	0	0	0	0	0	0	0	0	0	0	0	0	0	0	0	0	0	0	0	0	0	0	0	0	22	22	22	22	16	16	16	16	16	16	16	16	20	20	20	20	21	21	21	21	26	26	26	26	24	24	24	24	25	25	25	25	25	25	25	25	18	18	18	18	12	12	12	12	12	12	12	12	10	10	10	10	16	16	16	16	19	19	19	19	14	14	14	14	12	12	12	12	14	14	14	14	16	16	16	16	16	16	16	16	16	16	16	16	17	17	17	17	17	17	17	17	17	17	17	17	15	15	15	15	13	13	13	13	11	11	11	11	11	11	11	11	9	9	9	9	9	9	9	9	9	9	9	9	7	7	7	7	8	8	8	8	9	9	9	9	9	9	9	9	10	10	10	10	13	13	13	13	11	11	11	11	12	12	12	12	12	12	12	12	17	17	17	17	16	16	16	16	19	19	19	19	18	18	18	18	18	18	18	18	22	22	22	22	26	26	26	26	26	26	26	26	21	21	21	21	28	28	28	28	27	27	27	27	31	31	31	31	30	30	30	30	38	38	38	38	33	33	33	33	27	27	27	27	24	24	24	24	28	28	28	28	18	18	18	18	19	19	19	19	25	25	25	25	27	27	27	27	34	34	34	34	41	41	41	41	40	40	40	40	38	38	38	38	38	38	38	38	32
0	0	0	0	0	0	0	0	0	0	0	0	0	0	0	0	0	0	0	0	0	0	0	0	0	0	0	0	0	0	0	0	0	0	0	0	0	0	0	0	0	0	0	0	0	0	0	0	0	0	0	0	0	0	0	0	0	0	0	0	0	0	0	0	0	0	0	0	0	0	0	0	0	0	0	0	0	0	0	0	0	0	0	0	0	0	0	0	0	0	0	0	0	0	0	0	0	0	0	0	0	0	0	0	0	0	0	0	0	0	0	0	0	0	0	0	0	0	0	0	0	0	0	0	0	0	0	16	16	16	16	12	12	12	12	11	11	11	11	11	11	11	11	12	12	12	12	17	17	17	17	21	21	21	21	27	27	27	27	29	29	29	29	25	25	25	25	16	16	16	16	16	16	16	16	12	12	12	12	13	13	13	13	16	16	16	16	19	19	19	19	16	16	16	16	12	12	12	12	16	16	16	16	20	20	20	20	21	21	21	21	22	22	22	22	20	20	20	20	16	16	16	16	17	17	17	17	16	16	16	16	12	12	12	12	13	13	13	13	10	10	10	10	10	10	10	10	10	10	10	10	11	11	11	11	9	9	9	9	8	8	8	8	10	10	10	10	10	10	10	10	10	10	10	10	11	11	11	11	13	13	13	13	13	13	13	13	13	13	13	13	15	15	15	15	16	16	16	16	16	16	16	16	18	18	18	18	19	19	19	19	19	19	19	19	18	18	18	18	20	20	20	20	21	21	21	21	25	25	25	25	29	29	29	29	30	30	30	30	36	36	36	36	38	38	38	38	33	33	33	33	28	28	28	28	25	25	25	25	31	31	31	31	25	25	25	25	21	21	21	21	20	20	20	20	20	20	20	20	28	28	28	28	30	30	30	30	36	36	36	36	37	37	37	37	44	44	44	44	37
0	0	0	0	0	0	0	0	0	0	0	0	0	0	0	0	0	0	0	0	0	0	0	0	0	0	0	0	0	0	0	0	0	0	0	0	0	0	0	0	0	0	0	0	0	0	0	0	0	0	0	0	0	0	0	0	0	0	0	0	0	0	0	0	0	0	0	0	0	0	0	0	0	0	0	0	0	0	0	0	0	0	0	0	0	0	0	0	0	0	0	0	0	0	0	0	0	0	0	0	0	0	0	0	0	0	0	0	0	0	0	0	0	0	0	0	0	0	0	0	0	0	0	0	0	0	0	16	16	16	16	12	12	12	12	11	11	11	11	11	11	11	11	12	12	12	12	17	17	17	17	21	21	21	21	27	27	27	27	29	29	29	29	25	25	25	25	16	16	16	16	16	16	16	16	12	12	12	12	13	13	13	13	16	16	16	16	19	19	19	19	16	16	16	16	12	12	12	12	16	16	16	16	20	20	20	20	21	21	21	21	22	22	22	22	20	20	20	20	16	16	16	16	17	17	17	17	16	16	16	16	12	12	12	12	13	13	13	13	10	10	10	10	10	10	10	10	10	10	10	10	11	11	11	11	9	9	9	9	8	8	8	8	10	10	10	10	10	10	10	10	10	10	10	10	11	11	11	11	13	13	13	13	13	13	13	13	13	13	13	13	15	15	15	15	16	16	16	16	16	16	16	16	18	18	18	18	19	19	19	19	19	19	19	19	18	18	18	18	20	20	20	20	21	21	21	21	25	25	25	25	29	29	29	29	30	30	30	30	36	36	36	36	38	38	38	38	33	33	33	33	28	28	28	28	25	25	25	25	31	31	31	31	25	25	25	25	21	21	21	21	20	20	20	20	20	20	20	20	28	28	28	28	30	30	30	30	36	36	36	36	37	37	37	37	44	44	44	44	37
0	0	0	0	0	0	0	0	0	0	0	0	0	0	0	0	0	0	0	0	0	0	0	0	0	0	0	0	0	0	0	0	0	0	0	0	0	0	0	0	0	0	0	0	0	0	0	0	0	0	0	0	0	0	0	0	0	0	0	0	0	0	0	0	0	0	0	0	0	0	0	0	0	0	0	0	0	0	0	0	0	0	0	0	0	0	0	0	0	0	0	0	0	0	0	0	0	0	0	0	0	0	0	0	0	0	0	0	0	0	0	0	0	0	0	0	0	0	0	0	0	0	0	0	0	0	0	16	16	16	16	12	12	12	12	11	11	11	11	11	11	11	11	12	12	12	12	17	17	17	17	21	21	21	21	27	27	27	27	29	29	29	29	25	25	25	25	16	16	16	16	16	16	16	16	12	12	12	12	13	13	13	13	16	16	16	16	19	19	19	19	16	16	16	16	12	12	12	12	16	16	16	16	20	20	20	20	21	21	21	21	22	22	22	22	20	20	20	20	16	16	16	16	17	17	17	17	16	16	16	16	12	12	12	12	13	13	13	13	10	10	10	10	10	10	10	10	10	10	10	10	11	11	11	11	9	9	9	9	8	8	8	8	10	10	10	10	10	10	10	10	10	10	10	10	11	11	11	11	13	13	13	13	13	13	13	13	13	13	13	13	15	15	15	15	16	16	16	16	16	16	16	16	18	18	18	18	19	19	19	19	19	19	19	19	18	18	18	18	20	20	20	20	21	21	21	21	25	25	25	25	29	29	29	29	30	30	30	30	36	36	36	36	38	38	38	38	33	33	33	33	28	28	28	28	25	25	25	25	31	31	31	31	25	25	25	25	21	21	21	21	20	20	20	20	20	20	20	20	28	28	28	28	30	30	30	30	36	36	36	36	37	37	37	37	44	44	44	44	37
0	0	0	0	0	0	0	0	0	0	0	0	0	0	0	0	0	0	0	0	0	0	0	0	0	0	0	0	0	0	0	0	0	0	0	0	0	0	0	0	0	0	0	0	0	0	0	0	0	0	0	0	0	0	0	0	0	0	0	0	0	0	0	0	0	0	0	0	0	0	0	0	0	0	0	0	0	0	0	0	0	0	0	0	0	0	0	0	0	0	0	0	0	0	0	0	0	0	0	0	0	0	0	0	0	0	0	0	0	0	0	0	0	0	0	0	0	0	0	0	0	0	0	0	0	0	0	16	16	16	16	12	12	12	12	11	11	11	11	11	11	11	11	12	12	12	12	17	17	17	17	21	21	21	21	27	27	27	27	29	29	29	29	25	25	25	25	16	16	16	16	16	16	16	16	12	12	12	12	13	13	13	13	16	16	16	16	19	19	19	19	16	16	16	16	12	12	12	12	16	16	16	16	20	20	20	20	21	21	21	21	22	22	22	22	20	20	20	20	16	16	16	16	17	17	17	17	16	16	16	16	12	12	12	12	13	13	13	13	10	10	10	10	10	10	10	10	10	10	10	10	11	11	11	11	9	9	9	9	8	8	8	8	10	10	10	10	10	10	10	10	10	10	10	10	11	11	11	11	13	13	13	13	13	13	13	13	13	13	13	13	15	15	15	15	16	16	16	16	16	16	16	16	18	18	18	18	19	19	19	19	19	19	19	19	18	18	18	18	20	20	20	20	21	21	21	21	25	25	25	25	29	29	29	29	30	30	30	30	36	36	36	36	38	38	38	38	33	33	33	33	28	28	28	28	25	25	25	25	31	31	31	31	25	25	25	25	21	21	21	21	20	20	20	20	20	20	20	20	28	28	28	28	30	30	30	30	36	36	36	36	37	37	37	37	44	44	44	44	37
0	0	0	0	0	0	0	0	0	0	0	0	0	0	0	0	0	0	0	0	0	0	0	0	0	0	0	0	0	0	0	0	0	0	0	0	0	0	0	0	0	0	0	0	0	0	0	0	0	0	0	0	0	0	0	0	0	0	0	0	0	0	0	0	0	0	0	0	0	0	0	0	0	0	0	0	0	0	0	0	0	0	0	0	0	0	0	0	0	0	0	0	0	0	0	0	0	0	0	0	0	0	0	0	0	0	0	0	0	0	0	0	0	0	0	0	0	0	0	0	0	0	0	0	0	0	0	4	4	4	4	4	4	4	4	3	3	3	3	3	3	3	3	3	3	3	3	2	2	2	2	11	11	11	11	25	25	25	25	27	27	27	27	25	25	25	25	20	20	20	20	16	16	16	16	12	12	12	12	12	12	12	12	14	14	14	14	16	16	16	16	16	16	16	16	16	16	16	16	20	20	20	20	29	29	29	29	26	26	26	26	21	21	21	21	20	20	20	20	19	19	19	19	19	19	19	19	19	19	19	19	17	17	17	17	13	13	13	13	11	11	11	11	10	10	10	10	11	11	11	11	13	13	13	13	10	10	10	10	9	9	9	9	10	10	10	10	13	13	13	13	13	13	13	13	13	13	13	13	12	12	12	12	12	12	12	12	12	12	12	12	12	12	12	12	12	12	12	12	17	17	17	17	16	16	16	16	16	16	16	16	18	18	18	18	21	21	21	21	26	26	26	26	26	26	26	26	25	25	25	25	31	31	31	31	32	32	32	32	38	38	38	38	37	37	37	37	34	34	34	34	27	27	27	27	33	33	33	33	30	30	30	30	29	29	29	29	31	31	31	31	21	21	21	21	28	28	28	28	26	26	26	26	21	21	21	21	23	23	23	23	34	34	34	34	46	46	46	46	37
0	0	0	0	0	0	0	0	0	0	0	0	0	0	0	0	0	0	0	0	0	0	0	0	0	0	0	0	0	0	0	0	0	0	0	0	0	0	0	0	0	0	0	0	0	0	0	0	0	0	0	0	0	0	0	0	0	0	0	0	0	0	0	0	0	0	0	0	0	0	0	0	0	0	0	0	0	0	0	0	0	0	0	0	0	0	0	0	0	0	0	0	0	0	0	0	0	0	0	0	0	0	0	0	0	0	0	0	0	0	0	0	0	0	0	0	0	0	0	0	0	0	0	0	0	0	0	4	4	4	4	4	4	4	4	3	3	3	3	3	3	3	3	3	3	3	3	2	2	2	2	11	11	11	11	25	25	25	25	27	27	27	27	25	25	25	25	20	20	20	20	16	16	16	16	12	12	12	12	12	12	12	12	14	14	14	14	16	16	16	16	16	16	16	16	16	16	16	16	20	20	20	20	29	29	29	29	26	26	26	26	21	21	21	21	20	20	20	20	19	19	19	19	19	19	19	19	19	19	19	19	17	17	17	17	13	13	13	13	11	11	11	11	10	10	10	10	11	11	11	11	13	13	13	13	10	10	10	10	9	9	9	9	10	10	10	10	13	13	13	13	13	13	13	13	13	13	13	13	12	12	12	12	12	12	12	12	12	12	12	12	12	12	12	12	12	12	12	12	17	17	17	17	16	16	16	16	16	16	16	16	18	18	18	18	21	21	21	21	26	26	26	26	26	26	26	26	25	25	25	25	31	31	31	31	32	32	32	32	38	38	38	38	37	37	37	37	34	34	34	34	27	27	27	27	33	33	33	33	30	30	30	30	29	29	29	29	31	31	31	31	21	21	21	21	28	28	28	28	26	26	26	26	21	21	21	21	23	23	23	23	34	34	34	34	46	46	46	46	37
0	0	0	0	0	0	0	0	0	0	0	0	0	0	0	0	0	0	0	0	0	0	0	0	0	0	0	0	0	0	0	0	0	0	0	0	0	0	0	0	0	0	0	0	0	0	0	0	0	0	0	0	0	0	0	0	0	0	0	0	0	0	0	0	0	0	0	0	0	0	0	0	0	0	0	0	0	0	0	0	0	0	0	0	0	0	0	0	0	0	0	0	0	0	0	0	0	0	0	0	0	0	0	0	0	0	0	0	0	0	0	0	0	0	0	0	0	0	0	0	0	0	0	0	0	0	0	4	4	4	4	4	4	4	4	3	3	3	3	3	3	3	3	3	3	3	3	2	2	2	2	11	11	11	11	25	25	25	25	27	27	27	27	25	25	25	25	20	20	20	20	16	16	16	16	12	12	12	12	12	12	12	12	14	14	14	14	16	16	16	16	16	16	16	16	16	16	16	16	20	20	20	20	29	29	29	29	26	26	26	26	21	21	21	21	20	20	20	20	19	19	19	19	19	19	19	19	19	19	19	19	17	17	17	17	13	13	13	13	11	11	11	11	10	10	10	10	11	11	11	11	13	13	13	13	10	10	10	10	9	9	9	9	10	10	10	10	13	13	13	13	13	13	13	13	13	13	13	13	12	12	12	12	12	12	12	12	12	12	12	12	12	12	12	12	12	12	12	12	17	17	17	17	16	16	16	16	16	16	16	16	18	18	18	18	21	21	21	21	26	26	26	26	26	26	26	26	25	25	25	25	31	31	31	31	32	32	32	32	38	38	38	38	37	37	37	37	34	34	34	34	27	27	27	27	33	33	33	33	30	30	30	30	29	29	29	29	31	31	31	31	21	21	21	21	28	28	28	28	26	26	26	26	21	21	21	21	23	23	23	23	34	34	34	34	46	46	46	46	37
0	0	0	0	0	0	0	0	0	0	0	0	0	0	0	0	0	0	0	0	0	0	0	0	0	0	0	0	0	0	0	0	0	0	0	0	0	0	0	0	0	0	0	0	0	0	0	0	0	0	0	0	0	0	0	0	0	0	0	0	0	0	0	0	0	0	0	0	0	0	0	0	0	0	0	0	0	0	0	0	0	0	0	0	0	0	0	0	0	0	0	0	0	0	0	0	0	0	0	0	0	0	0	0	0	0	0	0	0	0	0	0	0	0	0	0	0	0	0	0	0	0	0	0	0	0	0	4	4	4	4	4	4	4	4	3	3	3	3	3	3	3	3	3	3	3	3	2	2	2	2	11	11	11	11	25	25	25	25	27	27	27	27	25	25	25	25	20	20	20	20	16	16	16	16	12	12	12	12	12	12	12	12	14	14	14	14	16	16	16	16	16	16	16	16	16	16	16	16	20	20	20	20	29	29	29	29	26	26	26	26	21	21	21	21	20	20	20	20	19	19	19	19	19	19	19	19	19	19	19	19	17	17	17	17	13	13	13	13	11	11	11	11	10	10	10	10	11	11	11	11	13	13	13	13	10	10	10	10	9	9	9	9	10	10	10	10	13	13	13	13	13	13	13	13	13	13	13	13	12	12	12	12	12	12	12	12	12	12	12	12	12	12	12	12	12	12	12	12	17	17	17	17	16	16	16	16	16	16	16	16	18	18	18	18	21	21	21	21	26	26	26	26	26	26	26	26	25	25	25	25	31	31	31	31	32	32	32	32	38	38	38	38	37	37	37	37	34	34	34	34	27	27	27	27	33	33	33	33	30	30	30	30	29	29	29	29	31	31	31	31	21	21	21	21	28	28	28	28	26	26	26	26	21	21	21	21	23	23	23	23	34	34	34	34	46	46	46	46	37
